-0.251240 0.113295 -0.487073 1.000000 0.000000 0.000000
-0.450056 0.345939 -0.262934 0.600000 0.000000 0.300000
-0.357527 -0.548105 0.489813 0.000000 0.500000 0.500000
0.253023 -0.201357 0.522376 0.500000 0.500000 0.000000
0.373086 -0.545085 0.178210 0.000000 1.000000 0.000000
-0.053028 0.331022 0.522376 0.500000 0.500000 0.000000
0.062134 -0.282472 0.489813 0.500000 0.500000 0.000000
-0.355081 0.106751 -0.100468 0.300000 0.000000 0.600000
-0.450056 -0.152398 -0.290898 0.600000 0.000000 0.300000
0.054336 -0.493527 0.358356 0.600000 0.000000 0.300000
-0.471765 0.061996 0.387672 0.600000 0.000000 0.300000
-0.059504 -0.326495 -0.345967 0.300000 0.600000 0.000000
0.377249 0.421741 0.489813 0.000000 1.000000 0.000000
0.418287 -0.343277 -0.289236 0.300000 0.000000 0.600000
0.337926 -0.249609 0.522376 0.000000 1.000000 0.000000
0.301603 -0.406550 0.251294 0.500000 0.000000 0.500000
-0.387644 0.185858 -0.271814 0.300000 0.000000 0.600000
-0.471765 0.057149 0.104421 0.600000 0.000000 0.300000
0.301603 0.050214 0.287971 0.600000 0.000000 0.300000
-0.167471 0.347543 -0.470792 1.000000 0.000000 0.000000
-0.387644 0.127154 -0.175718 0.300000 0.000000 0.600000
0.185996 -0.485387 -0.172722 0.600000 0.000000 0.300000
0.396578 -0.252826 0.331356 0.300000 0.000000 0.600000
0.225797 0.502354 -0.006959 0.000000 0.000000 1.000000
-0.120962 0.118652 -0.313404 0.600000 0.300000 0.000000
0.373003 0.599388 -0.470792 1.000000 0.000000 0.000000
0.334166 -0.256588 -0.033757 0.500000 0.000000 0.500000
-0.264517 -0.007798 -0.304153 0.300000 0.000000 0.600000
0.311860 0.669234 0.522376 1.000000 0.000000 0.000000
-0.471765 0.393280 -0.461407 0.600000 0.000000 0.300000
0.125923 -0.493527 -0.203571 0.600000 0.000000 0.300000
0.421001 -0.466931 0.552176 0.000000 1.000000 0.000000
0.268696 0.648887 -0.476504 1.000000 0.000000 0.000000
0.334166 0.188709 -0.310111 0.600000 0.000000 0.300000
-0.449667 0.468380 0.522376 1.000000 0.000000 0.000000
-0.295345 -0.493527 -0.201603 0.600000 0.000000 0.300000
-0.471765 -0.649307 0.278614 0.000000 0.000000 1.000000
0.219528 -0.351348 -0.345967 0.300000 0.600000 0.000000
0.304085 -0.515236 -0.250656 0.500000 0.000000 0.500000
0.418287 0.006623 -0.180318 0.300000 0.000000 0.600000
0.031696 -0.566455 0.489813 0.000000 0.500000 0.500000
-0.450056 -0.579790 -0.193040 0.600000 0.000000 0.300000
-0.281960 0.494213 0.211127 0.000000 0.000000 1.000000
-0.001339 0.532586 0.585900 0.300000 0.000000 0.600000
-0.471765 -0.485843 -0.324084 0.600000 0.000000 0.300000
0.301560 0.274105 0.322099 0.000000 0.000000 1.000000
-0.312347 0.122687 -0.313404 0.600000 0.300000 0.000000
-0.387644 -0.320693 0.401978 0.000000 0.500000 0.500000
-0.013380 0.399700 0.522376 1.000000 0.000000 0.000000
0.127032 -0.692366 0.386697 1.000000 0.000000 0.000000
-0.387644 0.029225 0.015276 0.300000 0.000000 0.600000
-0.335155 0.295021 -0.487073 1.000000 0.000000 0.000000
-0.219321 -0.545085 -0.110284 0.000000 1.000000 0.000000
-0.054824 0.259376 0.538657 0.500000 0.500000 0.000000
-0.389176 -0.545085 -0.362885 0.000000 1.000000 0.000000
0.092462 0.162166 0.489813 0.500000 0.500000 0.000000
-0.355081 -0.216707 -0.013156 0.000000 0.500000 0.500000
-0.306473 0.297642 -0.345967 0.600000 0.300000 0.000000
0.164305 -0.159836 -0.470792 1.000000 0.000000 0.000000
-0.323307 0.389348 0.489813 0.600000 0.300000 0.000000
-0.103101 -0.577947 0.554939 0.000000 1.000000 0.000000
-0.458909 -0.502857 0.554939 0.000000 1.000000 0.000000
0.155244 0.060473 0.522376 0.500000 0.500000 0.000000
0.015431 -0.363639 0.522376 0.500000 0.500000 0.000000
-0.114278 0.178717 -0.313404 0.600000 0.300000 0.000000
-0.233376 -0.471671 0.522376 0.500000 0.500000 0.000000
0.418287 0.651697 -0.091192 0.300000 0.000000 0.600000
0.301603 -0.317902 -0.322935 0.500000 0.000000 0.500000
0.107160 -0.493527 0.072857 0.600000 0.000000 0.300000
0.324595 0.524129 0.554939 1.000000 0.000000 0.000000
0.211523 0.601223 0.522376 1.000000 0.000000 0.000000
-0.450056 0.634004 0.273031 0.600000 0.000000 0.300000
-0.070812 -0.015939 0.295711 0.300000 0.000000 0.600000
0.364015 0.041782 0.492634 0.000000 1.000000 0.000000
0.271947 -0.007798 0.435221 0.300000 0.000000 0.600000
-0.387644 -0.376607 -0.261676 0.000000 0.500000 0.500000
0.301603 -0.017717 0.225370 0.600000 0.000000 0.300000
0.334166 0.173516 0.344840 0.600000 0.000000 0.300000
0.396578 0.063547 0.336339 0.300000 0.000000 0.600000
0.418287 0.250170 -0.325286 0.300000 0.000000 0.600000
-0.291257 -0.007798 0.061914 0.300000 0.000000 0.600000
-0.075145 0.388506 0.522376 0.600000 0.300000 0.000000
-0.387644 -0.029902 0.203345 0.300000 0.000000 0.600000
-0.440976 0.453927 0.489813 0.500000 0.500000 0.000000
-0.471765 0.074239 0.206547 0.600000 0.000000 0.300000
0.418287 0.526995 -0.063083 0.300000 0.000000 0.600000
0.152515 0.281033 0.522376 0.500000 0.500000 0.000000
-0.021297 -0.373064 -0.345967 0.300000 0.600000 0.000000
0.421001 0.371111 0.534383 0.500000 0.500000 0.000000
0.223616 0.520934 -0.345967 0.800000 0.200000 0.500000
-0.034588 -0.541177 0.522376 0.000000 1.000000 0.000000
-0.450056 0.314831 -0.484776 0.600000 0.000000 0.300000
0.268950 0.337341 0.554939 0.500000 0.500000 0.000000
-0.268373 0.123287 0.522376 0.500000 0.500000 0.000000
0.352607 0.124719 0.522376 0.500000 0.500000 0.000000
-0.374086 -0.453960 -0.487073 0.800000 0.200000 0.500000
-0.433779 0.670595 0.358904 0.600000 0.000000 0.300000
0.396578 -0.353045 0.325372 0.300000 0.000000 0.600000
0.396578 0.068566 0.253296 0.300000 0.000000 0.600000
-0.376056 0.585391 0.522376 0.600000 0.000000 0.300000
0.334166 0.106753 0.243481 0.600000 0.000000 0.300000
-0.222566 0.589121 -0.345967 0.800000 0.200000 0.500000
-0.471765 0.107016 0.409768 0.600000 0.000000 0.300000
0.396578 -0.376677 -0.484165 0.300000 0.000000 0.600000
0.388712 -0.259817 0.554939 0.000000 1.000000 0.000000
-0.355081 -0.503056 0.212513 0.000000 0.500000 0.500000
0.418287 0.501844 0.132133 0.300000 0.000000 0.600000
-0.355081 0.537302 -0.271201 0.600000 0.000000 0.300000
0.396578 -0.322462 0.240586 0.300000 0.000000 0.600000
-0.287716 0.494213 -0.190310 0.000000 0.000000 1.000000
0.387020 -0.356181 0.522376 0.000000 1.000000 0.000000
0.396578 0.501692 -0.251081 0.300000 0.000000 0.600000
0.323547 -0.304291 -0.470792 1.000000 0.000000 0.000000
-0.471765 -0.397296 -0.061621 0.600000 0.000000 0.300000
-0.387644 -0.392627 0.339655 0.000000 0.500000 0.500000
-0.261802 -0.366206 -0.487073 1.000000 0.000000 0.000000
-0.355081 -0.460751 0.410631 0.000000 0.500000 0.500000
0.383078 -0.471031 0.489813 0.000000 1.000000 0.000000
-0.471765 -0.762814 0.095236 0.000000 0.000000 1.000000
-0.337958 -0.256086 0.522376 0.500000 0.500000 0.000000
0.418287 0.141767 -0.213432 0.300000 0.000000 0.600000
-0.093175 0.100240 0.522376 0.500000 0.500000 0.000000
0.418287 -0.392479 -0.035782 0.300000 0.000000 0.600000
-0.471765 -0.507725 -0.486634 0.600000 0.000000 0.300000
-0.057582 0.502354 0.488884 0.000000 0.000000 1.000000
-0.471765 0.480556 -0.445194 0.600000 0.000000 0.300000
-0.334590 0.380243 0.550984 0.500000 0.500000 0.000000
0.418287 0.465894 0.239840 0.300000 0.000000 0.600000
-0.134781 0.374655 0.489813 0.600000 0.300000 0.000000
-0.230661 0.285598 -0.470792 1.000000 0.000000 0.000000
-0.241874 -0.369929 -0.313404 0.300000 0.600000 0.000000
-0.471765 0.191330 0.479846 0.600000 0.000000 0.300000
-0.415526 -0.335989 0.522376 0.000000 1.000000 0.000000
0.033483 0.494213 0.094722 0.000000 0.000000 1.000000
0.369563 0.028351 -0.487073 1.000000 0.000000 0.000000
-0.119589 -0.545085 0.191110 0.000000 1.000000 0.000000
0.163050 0.392566 -0.470792 1.000000 0.000000 0.000000
0.150020 -0.007798 0.096765 0.300000 0.000000 0.600000
-0.344227 0.323847 0.527251 0.500000 0.500000 0.000000
0.120528 -0.545085 0.115907 0.000000 1.000000 0.000000
-0.136691 -0.285934 0.489813 0.500000 0.500000 0.000000
0.052533 -0.545085 -0.209666 0.000000 1.000000 0.000000
-0.139206 -0.357911 0.538657 0.000000 1.000000 0.000000
0.318502 -0.037647 -0.296720 0.600000 0.000000 0.300000
-0.471765 -0.466802 0.276226 0.600000 0.000000 0.300000
-0.139094 -0.160035 0.554115 0.000000 1.000000 0.000000
-0.355081 0.225928 -0.050213 0.300000 0.000000 0.600000
0.279983 0.538571 0.489813 1.000000 0.000000 0.000000
0.334166 -0.428280 -0.324738 0.500000 0.000000 0.500000
-0.360061 0.055160 0.522376 0.300000 0.000000 0.600000
0.115525 0.364437 0.489813 0.600000 0.300000 0.000000
0.067395 0.497337 -0.487073 1.000000 0.000000 0.000000
0.418287 0.089891 0.186353 0.300000 0.000000 0.600000
-0.387644 -0.197384 -0.306586 0.000000 0.500000 0.500000
0.248237 0.646996 0.522376 0.300000 0.000000 0.600000
0.418287 0.036840 0.269322 0.300000 0.000000 0.600000
0.418287 -0.037568 -0.142804 0.300000 0.000000 0.600000
0.266327 0.661381 0.175341 0.300000 0.600000 0.000000
-0.058528 0.123769 -0.313404 0.600000 0.300000 0.000000
0.222968 -0.548473 0.522376 0.000000 1.000000 0.000000
-0.387644 0.069636 0.337444 0.300000 0.000000 0.600000
-0.196501 -0.545714 0.522376 0.000000 1.000000 0.000000
-0.420867 0.509267 0.554939 1.000000 0.000000 0.000000
-0.355081 0.524907 -0.083264 0.600000 0.000000 0.300000
-0.447576 -0.562501 -0.487073 1.000000 0.000000 0.000000
0.067878 -0.015939 0.323734 0.300000 0.000000 0.600000
0.266327 0.656367 -0.158488 0.300000 0.600000 0.000000
0.281316 -0.286559 0.489813 0.500000 0.500000 0.000000
0.042079 -0.110236 0.522376 0.000000 1.000000 0.000000
-0.190932 -0.007798 -0.306141 0.300000 0.000000 0.600000
-0.438696 -0.358742 0.489813 0.500000 0.500000 0.000000
0.334166 -0.437112 0.023083 0.500000 0.000000 0.500000
-0.387644 -0.297401 0.081473 0.000000 0.500000 0.500000
0.353440 0.648887 0.125127 0.300000 0.600000 0.000000
0.352439 0.192829 0.522376 0.500000 0.500000 0.000000
-0.122617 -0.007798 0.441693 0.300000 0.000000 0.600000
0.418287 0.382016 0.178427 0.300000 0.000000 0.600000
-0.354675 -0.242940 -0.313404 0.300000 0.600000 0.000000
0.418287 -0.518201 0.469972 0.300000 0.000000 0.600000
-0.216886 0.400010 0.522376 0.600000 0.300000 0.000000
0.418287 0.694021 -0.005506 0.300000 0.000000 0.600000
0.418287 -0.751530 0.369949 0.800000 0.200000 0.500000
-0.450056 0.164279 -0.160130 0.600000 0.000000 0.300000
-0.387644 -0.328997 0.215097 0.000000 0.500000 0.500000
0.307483 -0.276104 -0.487073 1.000000 0.000000 0.000000
-0.083164 0.695018 0.546902 1.000000 0.000000 0.000000
-0.164125 0.659451 -0.487073 0.300000 0.000000 0.600000
0.331471 0.309690 0.496290 0.600000 0.000000 0.300000
-0.471765 0.026687 -0.471495 0.600000 0.000000 0.300000
0.418287 -0.084910 -0.269331 0.300000 0.000000 0.600000
-0.208493 -0.167899 -0.329558 0.300000 0.600000 0.000000
-0.450056 0.281806 0.248560 0.600000 0.000000 0.300000
0.301560 0.552673 0.238600 0.500000 0.500000 0.000000
0.396578 0.057429 0.418178 0.300000 0.000000 0.600000
-0.119813 -0.485387 0.142628 0.600000 0.000000 0.300000
-0.450056 -0.571912 -0.379098 0.600000 0.000000 0.300000
0.214913 -0.165693 0.522376 0.000000 1.000000 0.000000
0.334166 0.482951 0.428881 0.300000 0.000000 0.600000
0.325926 -0.042873 0.554939 0.500000 0.500000 0.000000
-0.471765 0.240640 0.050428 0.600000 0.000000 0.300000
-0.195533 -0.493527 -0.258127 0.600000 0.000000 0.300000
0.374522 -0.426620 -0.470792 1.000000 0.000000 0.000000
-0.347024 -0.413605 -0.487073 1.000000 0.000000 0.000000
-0.351222 -0.282183 -0.487073 1.000000 0.000000 0.000000
0.057988 0.130536 0.522376 0.500000 0.500000 0.000000
0.104412 -0.274654 0.538657 0.000000 1.000000 0.000000
0.334166 -0.340688 -0.319105 0.500000 0.000000 0.500000
-0.471765 -0.484610 0.449499 0.600000 0.000000 0.300000
0.396578 -0.354702 0.279895 0.300000 0.000000 0.600000
-0.471765 -0.123877 0.178559 0.600000 0.000000 0.300000
-0.471765 -0.232504 0.328694 0.600000 0.000000 0.300000
-0.047955 -0.515236 -0.333599 0.300000 0.600000 0.000000
-0.060150 0.537122 0.489813 1.000000 0.000000 0.000000
-0.217701 0.472505 -0.345471 0.800000 0.200000 0.500000
0.037047 -0.493527 -0.212120 0.600000 0.000000 0.300000
0.261759 -0.419444 -0.313404 0.300000 0.600000 0.000000
0.418287 -0.692612 -0.447187 0.800000 0.200000 0.500000
-0.004832 0.670974 0.522376 1.000000 0.000000 0.000000
-0.456068 0.564026 0.554939 1.000000 0.000000 0.000000
-0.387644 0.586529 0.253549 0.600000 0.000000 0.300000
-0.355081 0.233131 -0.182570 0.300000 0.000000 0.600000
0.334166 0.300573 -0.034640 0.600000 0.000000 0.300000
-0.205836 0.084516 -0.345967 0.600000 0.300000 0.000000
0.410592 -0.446446 0.522376 0.000000 1.000000 0.000000
-0.471765 -0.271414 -0.118205 0.600000 0.000000 0.300000
0.235668 -0.355713 0.522376 0.500000 0.500000 0.000000
0.388386 0.670595 -0.219859 0.300000 0.600000 0.000000
-0.101882 0.602756 -0.329262 0.800000 0.200000 0.500000
0.321634 0.309690 -0.170167 0.600000 0.000000 0.300000
0.334166 -0.314493 0.377505 0.500000 0.000000 0.500000
0.032207 0.353489 0.554939 0.500000 0.500000 0.000000
-0.058730 -0.426913 0.538657 0.000000 1.000000 0.000000
-0.471765 -0.569248 0.008846 0.600000 0.000000 0.300000
-0.387644 -0.452742 0.200612 0.000000 0.500000 0.500000
0.321879 -0.483231 0.554939 0.000000 1.000000 0.000000
0.295881 0.670595 0.371020 0.300000 0.600000 0.000000
0.301603 -0.358952 0.055991 0.500000 0.000000 0.500000
-0.471765 0.440728 0.069580 0.600000 0.000000 0.300000
0.418287 -0.047319 -0.314952 0.300000 0.000000 0.600000
-0.450056 0.595986 -0.051491 0.600000 0.000000 0.300000
0.301738 0.472505 -0.002325 0.300000 0.000000 0.600000
-0.355081 0.143049 0.312374 0.300000 0.000000 0.600000
0.418287 0.431349 -0.272940 0.300000 0.000000 0.600000
-0.172047 0.516584 -0.487073 1.000000 0.000000 0.000000
-0.471765 -0.368257 0.450244 0.600000 0.000000 0.300000
-0.169659 0.494213 0.061773 0.000000 0.000000 1.000000
-0.452323 -0.530756 0.489813 0.500000 0.500000 0.000000
0.334166 -0.322239 0.161421 0.500000 0.000000 0.500000
0.418287 0.298278 0.418723 0.300000 0.000000 0.600000
0.175347 0.204262 -0.487073 1.000000 0.000000 0.000000
-0.353157 0.205840 -0.313404 0.600000 0.300000 0.000000
-0.201414 -0.545085 -0.427688 0.000000 1.000000 0.000000
0.393314 0.152162 -0.470792 1.000000 0.000000 0.000000
-0.007101 0.592116 -0.313404 0.800000 0.200000 0.500000
0.371567 0.312016 0.489813 0.000000 1.000000 0.000000
-0.284198 0.302554 0.489813 0.500000 0.500000 0.000000
0.418287 0.576561 0.072378 0.300000 0.000000 0.600000
-0.387644 -0.337001 0.489217 0.000000 0.500000 0.500000
0.282306 0.670595 -0.101533 0.300000 0.600000 0.000000
-0.387644 -0.253334 0.113875 0.000000 0.500000 0.500000
0.396578 0.371310 0.445872 0.300000 0.000000 0.600000
0.418287 -0.438726 0.059894 0.300000 0.000000 0.600000
-0.387644 0.236555 0.410199 0.300000 0.000000 0.600000
-0.361768 0.648887 -0.384223 0.600000 0.000000 0.300000
-0.387644 -0.380754 -0.183029 0.000000 0.500000 0.500000
0.163897 -0.167899 0.514232 0.500000 0.500000 0.000000
0.267199 -0.703042 0.386697 1.000000 0.000000 0.000000
0.063365 -0.708065 0.386697 1.000000 0.000000 0.000000
-0.236350 -0.707957 0.386697 1.000000 0.000000 0.000000
-0.007085 -0.485387 0.073071 0.600000 0.000000 0.300000
0.073695 -0.081623 0.522376 0.500000 0.000000 0.500000
0.074754 -0.562187 0.554939 0.000000 1.000000 0.000000
-0.174819 0.642430 0.554939 1.000000 0.000000 0.000000
0.113458 -0.662324 -0.519636 0.600000 0.000000 0.300000
-0.355081 0.103737 -0.036815 0.300000 0.000000 0.600000
-0.450056 0.133225 0.134986 0.600000 0.000000 0.300000
0.090393 0.244872 0.522376 0.500000 0.500000 0.000000
-0.325989 0.452817 -0.487073 1.000000 0.000000 0.000000
0.056404 -0.493527 -0.301644 0.600000 0.000000 0.300000
0.283430 -0.678308 -0.519636 0.600000 0.000000 0.300000
-0.355081 0.059519 0.124771 0.300000 0.000000 0.600000
-0.373423 0.670595 0.021665 0.600000 0.000000 0.300000
-0.132968 -0.015939 0.312827 0.300000 0.000000 0.600000
0.349801 0.670595 -0.014537 0.300000 0.600000 0.000000
-0.346913 0.050625 -0.487073 1.000000 0.000000 0.000000
0.418287 -0.554794 -0.506351 0.300000 0.000000 0.600000
0.336241 0.670595 -0.176094 0.300000 0.600000 0.000000
-0.450056 -0.426984 -0.179498 0.600000 0.000000 0.300000
-0.450056 0.612568 -0.138287 0.600000 0.000000 0.300000
-0.471765 0.017386 0.345534 0.600000 0.000000 0.300000
0.418287 0.561626 -0.050040 0.300000 0.000000 0.600000
0.334166 0.026473 0.476764 0.600000 0.000000 0.300000
-0.450056 -0.596322 -0.316984 0.600000 0.000000 0.300000
0.029009 -0.173834 -0.487073 1.000000 0.000000 0.000000
-0.450056 0.150159 0.022198 0.600000 0.000000 0.300000
0.375903 -0.186214 -0.487073 1.000000 0.000000 0.000000
0.259920 -0.368372 -0.470792 1.000000 0.000000 0.000000
0.396578 -0.165103 -0.132270 0.300000 0.000000 0.600000
0.418287 -0.209639 -0.225591 0.300000 0.000000 0.600000
-0.269804 -0.545085 0.003650 0.000000 1.000000 0.000000
-0.060994 0.572907 -0.506466 0.300000 0.000000 0.600000
-0.118478 0.502354 0.106691 0.000000 0.000000 1.000000
-0.324804 0.055112 -0.345967 0.600000 0.300000 0.000000
0.389639 -0.141917 0.522376 0.000000 1.000000 0.000000
0.301603 -0.217284 0.117941 0.500000 0.000000 0.500000
-0.387644 0.099439 -0.272277 0.300000 0.000000 0.600000
0.392303 0.672593 0.554939 1.000000 0.000000 0.000000
-0.355081 -0.294554 0.479356 0.000000 0.500000 0.500000
-0.355081 0.055548 0.390020 0.300000 0.000000 0.600000
0.145011 0.489607 -0.313404 0.800000 0.200000 0.500000
0.311743 -0.221275 0.522376 0.000000 1.000000 0.000000
-0.471765 0.257094 0.142241 0.600000 0.000000 0.300000
0.210728 -0.550658 -0.487073 1.000000 0.000000 0.000000
0.020525 0.504521 -0.313404 0.800000 0.200000 0.500000
0.396578 0.544291 -0.004994 0.300000 0.000000 0.600000
0.010725 -0.015939 0.203496 0.300000 0.000000 0.600000
-0.471765 -0.260414 0.300339 0.600000 0.000000 0.300000
0.322429 -0.485029 -0.487073 1.000000 0.000000 0.000000
0.396578 0.426042 -0.222272 0.300000 0.000000 0.600000
-0.099436 -0.305825 0.522376 0.500000 0.500000 0.000000
-0.355081 0.019528 -0.301923 0.300000 0.000000 0.600000
0.396578 0.330093 -0.498473 0.300000 0.000000 0.600000
-0.347799 -0.545085 0.001261 0.000000 1.000000 0.000000
-0.142104 0.010539 -0.345967 0.600000 0.300000 0.000000
0.301603 0.073775 0.126910 0.600000 0.000000 0.300000
0.418287 -0.466820 -0.036435 0.300000 0.000000 0.600000
0.181793 0.263148 -0.470792 1.000000 0.000000 0.000000
0.418287 -0.560027 -0.133464 0.300000 0.000000 0.600000
0.341785 0.532610 -0.487073 1.000000 0.000000 0.000000
-0.435424 -0.336660 0.554939 0.000000 1.000000 0.000000
-0.282397 -0.485387 -0.282125 0.600000 0.000000 0.300000
-0.255599 -0.443531 0.522376 0.500000 0.500000 0.000000
-0.310971 -0.545085 0.155415 0.000000 1.000000 0.000000
0.418287 -0.460509 -0.237548 0.300000 0.000000 0.600000
0.132151 -0.238758 -0.470792 1.000000 0.000000 0.000000
-0.334219 -0.150910 0.522376 0.000000 1.000000 0.000000
0.000361 0.087501 -0.345967 0.600000 0.300000 0.000000
0.418287 0.041172 -0.125062 0.300000 0.000000 0.600000
0.418287 0.094713 0.342700 0.300000 0.000000 0.600000
0.313855 -0.206038 -0.487073 1.000000 0.000000 0.000000
0.334166 -0.273124 0.456908 0.500000 0.000000 0.500000
-0.355081 -0.301372 -0.144617 0.000000 0.500000 0.500000
0.264996 -0.485387 -0.043093 0.600000 0.000000 0.300000
-0.378342 0.194261 0.554939 0.500000 0.500000 0.000000
0.300443 0.359099 -0.487073 1.000000 0.000000 0.000000
-0.471765 0.602038 0.220236 0.600000 0.000000 0.300000
0.099104 -0.015939 0.029049 0.300000 0.000000 0.600000
0.157989 -0.015939 0.282076 0.300000 0.000000 0.600000
0.151238 -0.206648 0.538657 0.000000 1.000000 0.000000
-0.048123 -0.118097 0.522376 0.000000 1.000000 0.000000
-0.387644 0.125692 -0.336205 0.300000 0.000000 0.600000
0.157205 -0.007798 -0.165902 0.300000 0.000000 0.600000
0.334166 0.501709 -0.038370 0.300000 0.000000 0.600000
-0.450056 -0.489788 -0.228228 0.600000 0.000000 0.300000
0.418287 0.230250 -0.399591 0.300000 0.000000 0.600000
0.158518 0.494213 0.088403 0.000000 0.000000 1.000000
-0.450056 -0.185876 -0.070126 0.600000 0.000000 0.300000
-0.234113 0.171515 0.489813 0.500000 0.500000 0.000000
-0.359897 -0.290985 -0.345967 0.000000 0.500000 0.500000
-0.471765 -0.130616 -0.471496 0.600000 0.000000 0.300000
-0.471765 -0.202929 0.184822 0.600000 0.000000 0.300000
-0.460800 -0.229056 -0.519636 0.600000 0.000000 0.300000
-0.343001 0.661009 0.489813 0.300000 0.000000 0.600000
-0.302832 -0.205645 0.522376 0.500000 0.500000 0.000000
0.066099 0.496149 -0.313404 0.800000 0.200000 0.500000
-0.450056 0.069343 0.019736 0.600000 0.000000 0.300000
-0.217589 0.663913 -0.519636 0.300000 0.000000 0.600000
0.125414 -0.007798 0.239074 0.300000 0.000000 0.600000
0.267138 -0.080564 0.522376 0.500000 0.000000 0.500000
-0.355081 0.053171 -0.233104 0.300000 0.000000 0.600000
-0.450056 -0.282578 -0.195916 0.600000 0.000000 0.300000
-0.470975 0.613557 0.489813 0.500000 0.500000 0.000000
0.301603 0.283655 0.288123 0.600000 0.000000 0.300000
0.041913 -0.287419 0.538657 0.000000 1.000000 0.000000
-0.131738 0.494213 0.293645 0.000000 0.000000 1.000000
0.364015 -0.441269 0.494657 0.000000 1.000000 0.000000
-0.199655 -0.542555 0.489813 0.000000 0.500000 0.500000
0.231297 0.104465 -0.487073 1.000000 0.000000 0.000000
-0.436789 0.038394 0.522376 0.500000 0.500000 0.000000
-0.450056 0.080063 0.247514 0.600000 0.000000 0.300000
-0.203759 -0.010380 -0.345967 0.600000 0.300000 0.000000
0.295287 -0.462989 -0.487073 1.000000 0.000000 0.000000
0.396578 -0.141681 -0.447110 0.300000 0.000000 0.600000
0.155501 -0.495906 0.489813 0.500000 0.500000 0.000000
-0.186320 -0.750887 0.386697 1.000000 0.000000 0.000000
0.301603 0.502165 0.283451 0.300000 0.000000 0.600000
-0.471765 -0.272294 0.090496 0.600000 0.000000 0.300000
0.301603 0.027988 0.044484 0.600000 0.000000 0.300000
0.396578 0.264353 0.294379 0.300000 0.000000 0.600000
-0.396248 0.308653 -0.470792 1.000000 0.000000 0.000000
0.106751 0.019727 0.489813 0.500000 0.500000 0.000000
-0.348123 0.173770 -0.345967 0.600000 0.300000 0.000000
-0.387644 -0.248064 -0.088148 0.000000 0.500000 0.500000
-0.260234 -0.254069 0.522376 0.500000 0.500000 0.000000
-0.471765 0.150802 -0.448103 0.600000 0.000000 0.300000
0.002327 0.483359 0.535605 1.000000 0.000000 0.000000
0.072479 -0.504112 -0.345967 0.300000 0.600000 0.000000
-0.450056 0.489478 0.198669 0.600000 0.000000 0.300000
-0.285846 -0.142829 0.522376 0.000000 1.000000 0.000000
0.325756 -0.448034 0.554939 0.000000 1.000000 0.000000
0.266944 -0.485387 0.454000 0.600000 0.000000 0.300000
0.334166 0.301871 0.112889 0.600000 0.000000 0.300000
0.301603 -0.512781 -0.330055 0.500000 0.000000 0.500000
-0.387644 -0.381625 0.077414 0.000000 0.500000 0.500000
-0.260663 -0.485387 0.097960 0.600000 0.000000 0.300000
-0.283264 0.250685 -0.470792 1.000000 0.000000 0.000000
0.334166 0.299583 -0.079348 0.600000 0.000000 0.300000
0.192940 0.577421 -0.345967 0.800000 0.200000 0.500000
0.418287 0.217605 -0.448495 0.300000 0.000000 0.600000
-0.263257 -0.485387 -0.095560 0.600000 0.000000 0.300000
0.301603 -0.384755 0.166214 0.500000 0.000000 0.500000
0.396578 -0.083839 0.093060 0.300000 0.000000 0.600000
-0.377657 0.546341 0.522376 0.600000 0.000000 0.300000
0.396578 0.102593 0.390667 0.300000 0.000000 0.600000
0.130363 -0.702841 -0.519636 0.600000 0.000000 0.300000
-0.122215 -0.545085 0.117764 0.000000 1.000000 0.000000
-0.355081 -0.280005 0.143435 0.000000 0.500000 0.500000
0.135298 -0.545085 0.413555 0.000000 1.000000 0.000000
0.396578 -0.470772 0.151022 0.300000 0.000000 0.600000
-0.175606 -0.434068 0.489813 0.500000 0.500000 0.000000
0.025535 0.608183 0.538415 1.000000 0.000000 0.000000
-0.411056 -0.545085 -0.314436 0.000000 1.000000 0.000000
0.183070 0.006654 -0.313404 0.600000 0.300000 0.000000
0.418287 0.636158 0.227661 0.300000 0.000000 0.600000
0.167587 0.600172 0.538657 1.000000 0.000000 0.000000
0.177595 -0.545085 -0.264838 0.000000 1.000000 0.000000
-0.131507 0.165102 0.489813 0.500000 0.500000 0.000000
0.396578 0.346780 -0.177596 0.300000 0.000000 0.600000
-0.112498 0.390145 0.522376 0.600000 0.300000 0.000000
0.037201 -0.036021 0.522376 0.500000 0.500000 0.000000
-0.321398 -0.378048 0.538657 0.000000 1.000000 0.000000
-0.471765 -0.147330 0.242321 0.600000 0.000000 0.300000
-0.291155 0.399284 0.522376 0.600000 0.300000 0.000000
-0.119520 0.491220 -0.313404 0.800000 0.200000 0.500000
0.301603 -0.031800 0.505181 0.600000 0.000000 0.300000
0.418287 -0.033530 0.152092 0.300000 0.000000 0.600000
-0.212665 0.614456 0.545545 1.000000 0.000000 0.000000
0.089553 -0.545085 -0.072887 0.000000 1.000000 0.000000
0.236191 -0.015939 0.275612 0.300000 0.000000 0.600000
-0.471765 -0.129460 0.358478 0.600000 0.000000 0.300000
-0.355081 0.585140 0.416215 0.600000 0.000000 0.300000
0.334166 -0.247526 0.035550 0.500000 0.000000 0.500000
-0.274200 -0.007798 -0.002283 0.300000 0.000000 0.600000
-0.191457 0.033275 -0.470792 1.000000 0.000000 0.000000
-0.035077 0.508789 0.538657 1.000000 0.000000 0.000000
0.400244 0.626316 0.489813 0.000000 1.000000 0.000000
0.327350 -0.515236 0.059002 0.500000 0.000000 0.500000
-0.471765 -0.619421 -0.439407 0.000000 0.000000 1.000000
-0.415769 -0.048931 -0.487073 1.000000 0.000000 0.000000
-0.036567 -0.179935 -0.345967 0.300000 0.600000 0.000000
-0.370074 -0.558048 0.554939 0.000000 1.000000 0.000000
-0.352602 0.239048 0.522376 0.500000 0.500000 0.000000
-0.387644 0.067465 -0.206590 0.300000 0.000000 0.600000
-0.269123 0.003484 -0.487073 1.000000 0.000000 0.000000
-0.266873 0.587494 0.522376 1.000000 0.000000 0.000000
0.418287 0.630564 0.083286 0.300000 0.000000 0.600000
0.222757 0.364458 0.522376 0.500000 0.500000 0.000000
-0.471765 0.471748 -0.001183 0.600000 0.000000 0.300000
-0.092067 0.549161 0.489813 1.000000 0.000000 0.000000
0.258683 -0.512152 0.489813 0.500000 0.500000 0.000000
-0.355081 -0.247206 0.215877 0.000000 0.500000 0.500000
0.334166 0.199338 0.450622 0.600000 0.000000 0.300000
0.118775 0.466961 0.522376 1.000000 0.000000 0.000000
0.418287 -0.318451 -0.126876 0.300000 0.000000 0.600000
0.334166 0.057053 0.083063 0.600000 0.000000 0.300000
-0.471765 -0.043392 -0.352304 0.600000 0.000000 0.300000
0.134200 -0.606968 0.386697 1.000000 0.000000 0.000000
0.003129 0.396203 -0.487073 1.000000 0.000000 0.000000
-0.467724 -0.736285 -0.519636 0.000000 0.000000 1.000000
0.132275 0.502354 0.305981 0.000000 0.000000 1.000000
-0.291037 -0.466382 0.489813 0.500000 0.500000 0.000000
0.396578 0.525939 0.469187 0.300000 0.000000 0.600000
-0.183024 -0.007798 -0.178135 0.300000 0.000000 0.600000
-0.450056 0.509171 -0.174229 0.600000 0.000000 0.300000
0.073243 -0.339908 0.522376 0.500000 0.500000 0.000000
0.104187 -0.481917 -0.345967 0.300000 0.600000 0.000000
0.000618 0.494213 0.450467 0.000000 0.000000 1.000000
-0.471765 -0.605340 0.180777 0.000000 0.000000 1.000000
-0.279162 -0.007798 -0.237210 0.300000 0.000000 0.600000
-0.387644 -0.220619 0.383844 0.000000 0.500000 0.500000
0.192329 -0.387059 0.489813 0.500000 0.500000 0.000000
0.418287 0.046857 0.124230 0.300000 0.000000 0.600000
0.334166 0.571344 -0.213777 0.300000 0.000000 0.600000
-0.450056 0.594613 0.320480 0.600000 0.000000 0.300000
0.098907 0.242727 -0.487073 1.000000 0.000000 0.000000
0.181509 -0.407046 -0.345967 0.300000 0.600000 0.000000
-0.471765 0.248973 0.192270 0.600000 0.000000 0.300000
-0.471765 0.301772 -0.049065 0.600000 0.000000 0.300000
0.273397 0.494213 0.307026 0.000000 0.000000 1.000000
0.349015 0.686949 0.489813 0.300000 0.000000 0.600000
-0.012545 -0.485387 0.119778 0.600000 0.000000 0.300000
0.351935 -0.599357 0.505411 0.000000 0.500000 0.500000
-0.450056 -0.454129 0.008307 0.600000 0.000000 0.300000
0.398132 0.010888 0.522376 0.000000 1.000000 0.000000
0.418287 0.681741 -0.184230 0.300000 0.000000 0.600000
-0.310319 -0.007798 0.368026 0.300000 0.000000 0.600000
-0.229232 -0.493527 -0.106332 0.600000 0.000000 0.300000
-0.355081 0.007346 0.389201 0.300000 0.000000 0.600000
-0.208374 0.302257 -0.313404 0.600000 0.300000 0.000000
-0.093064 0.587657 -0.519636 0.300000 0.000000 0.600000
0.310762 0.472505 0.381502 0.300000 0.000000 0.600000
-0.450056 0.086155 -0.106457 0.600000 0.000000 0.300000
-0.043261 -0.270915 0.489813 0.500000 0.500000 0.000000
-0.471765 0.570509 0.229993 0.600000 0.000000 0.300000
-0.450056 -0.034665 0.101356 0.600000 0.000000 0.300000
0.418287 -0.581766 0.356105 0.300000 0.000000 0.600000
0.396578 -0.386387 -0.516307 0.300000 0.000000 0.600000
0.418287 0.563392 -0.144737 0.300000 0.000000 0.600000
-0.313438 0.638032 0.520759 0.300000 0.000000 0.600000
-0.149632 -0.015939 0.363509 0.300000 0.000000 0.600000
0.343360 -0.545085 -0.202100 0.000000 1.000000 0.000000
-0.299774 0.361050 0.522376 0.600000 0.300000 0.000000
-0.355081 -0.028443 0.266630 0.300000 0.000000 0.600000
0.418287 -0.206131 0.198271 0.300000 0.000000 0.600000
-0.415563 -0.545085 0.467693 0.000000 1.000000 0.000000
-0.450056 -0.059601 -0.010549 0.600000 0.000000 0.300000
0.126167 -0.169838 -0.313404 0.300000 0.600000 0.000000
-0.387644 0.181557 -0.140473 0.300000 0.000000 0.600000
-0.450056 -0.341917 -0.013765 0.600000 0.000000 0.300000
-0.450056 0.461163 0.298090 0.600000 0.000000 0.300000
-0.355081 0.173079 0.454391 0.300000 0.000000 0.600000
0.005672 0.177714 0.522376 0.500000 0.500000 0.000000
-0.387644 -0.394425 -0.233215 0.000000 0.500000 0.500000
-0.355081 -0.017578 -0.044956 0.300000 0.000000 0.600000
0.301603 -0.407521 -0.108895 0.500000 0.000000 0.500000
-0.241916 -0.485387 -0.049517 0.600000 0.000000 0.300000
0.197739 -0.505702 0.544387 0.000000 1.000000 0.000000
0.383961 -0.545085 0.308229 0.000000 1.000000 0.000000
-0.471765 -0.543978 -0.187034 0.600000 0.000000 0.300000
0.137288 0.240767 0.522376 0.500000 0.500000 0.000000
-0.387644 0.158536 0.068305 0.300000 0.000000 0.600000
-0.455422 -0.259951 0.522376 0.500000 0.500000 0.000000
0.024365 -0.262359 -0.487073 1.000000 0.000000 0.000000
0.102257 -0.219851 0.489813 0.500000 0.500000 0.000000
-0.215902 0.050528 0.489813 0.500000 0.500000 0.000000
-0.405940 0.567246 0.554939 1.000000 0.000000 0.000000
0.228550 -0.007798 0.485447 0.300000 0.000000 0.600000
-0.118587 -0.557738 0.489813 0.000000 0.500000 0.500000
0.160087 0.358287 0.522376 0.500000 0.500000 0.000000
-0.450056 0.551261 -0.022896 0.600000 0.000000 0.300000
0.396578 -0.276648 -0.108657 0.300000 0.000000 0.600000
0.418287 -0.559056 0.473192 0.300000 0.000000 0.600000
0.051612 -0.007798 0.013022 0.300000 0.000000 0.600000
0.418287 0.676865 -0.490264 0.300000 0.000000 0.600000
0.334166 0.253166 0.054718 0.600000 0.000000 0.300000
0.334166 -0.253229 0.098439 0.500000 0.000000 0.500000
0.279323 0.648887 0.148387 0.300000 0.600000 0.000000
-0.305638 0.052203 0.522376 0.500000 0.500000 0.000000
-0.387644 0.551677 -0.191478 0.600000 0.000000 0.300000
0.334166 0.020526 -0.186354 0.600000 0.000000 0.300000
-0.097320 0.502354 0.403216 0.000000 0.000000 1.000000
-0.450056 -0.199112 0.405631 0.600000 0.000000 0.300000
-0.355081 0.598514 0.214443 0.600000 0.000000 0.300000
0.334166 0.056145 -0.259954 0.600000 0.000000 0.300000
-0.471765 -0.323305 0.087393 0.600000 0.000000 0.300000
0.396578 -0.536278 -0.284847 0.300000 0.000000 0.600000
-0.387644 -0.448568 -0.260651 0.000000 0.500000 0.500000
0.418287 -0.402240 0.361798 0.300000 0.000000 0.600000
0.154937 -0.015939 0.055498 0.300000 0.000000 0.600000
-0.019587 0.154951 -0.487073 1.000000 0.000000 0.000000
0.157152 0.494213 0.361646 0.000000 0.000000 1.000000
-0.421019 -0.545085 0.356277 0.000000 1.000000 0.000000
0.244637 -0.493527 -0.254351 0.600000 0.000000 0.300000
-0.184392 -0.545085 0.449243 0.000000 1.000000 0.000000
0.042006 0.407052 -0.487073 1.000000 0.000000 0.000000
-0.148029 -0.337410 -0.470792 1.000000 0.000000 0.000000
-0.314170 0.157192 0.522376 0.500000 0.500000 0.000000
0.054763 0.502354 0.342668 0.000000 0.000000 1.000000
-0.215591 0.647272 -0.470792 1.000000 0.000000 0.000000
-0.057306 -0.432260 -0.313404 0.300000 0.600000 0.000000
-0.355081 -0.473569 -0.153419 0.000000 0.500000 0.500000
-0.123120 -0.565930 -0.519636 0.600000 0.000000 0.300000
0.418287 0.082610 0.078836 0.300000 0.000000 0.600000
-0.277331 -0.777757 0.386697 1.000000 0.000000 0.000000
0.396578 0.334535 -0.361977 0.300000 0.000000 0.600000
-0.471765 0.263762 -0.494967 0.600000 0.000000 0.300000
-0.471765 0.318427 -0.113526 0.600000 0.000000 0.300000
0.301560 0.548539 0.301567 0.500000 0.500000 0.000000
0.402061 0.099933 0.522376 0.500000 0.500000 0.000000
0.298355 0.648887 -0.354600 0.300000 0.600000 0.000000
0.383563 -0.401489 0.489813 0.000000 1.000000 0.000000
0.334166 0.551470 0.018130 0.300000 0.000000 0.600000
-0.450056 0.314058 -0.212517 0.600000 0.000000 0.300000
-0.052614 0.398560 0.489813 0.600000 0.300000 0.000000
-0.471765 0.167632 -0.399918 0.600000 0.000000 0.300000
-0.394736 -0.587053 0.554939 0.000000 1.000000 0.000000
0.334166 -0.219806 0.163089 0.500000 0.000000 0.500000
-0.121539 -0.736009 0.386697 1.000000 0.000000 0.000000
-0.243652 0.223056 -0.470792 1.000000 0.000000 0.000000
-0.432015 -0.027757 0.554939 0.500000 0.500000 0.000000
0.302465 0.602756 -0.016248 0.300000 0.000000 0.600000
-0.084995 0.447944 0.522376 1.000000 0.000000 0.000000
0.038801 -0.545085 0.464960 0.000000 1.000000 0.000000
-0.127046 -0.015939 0.189685 0.300000 0.000000 0.600000
0.396578 -0.571827 0.230027 0.300000 0.000000 0.600000
-0.003391 -0.485387 0.331441 0.600000 0.000000 0.300000
0.052315 0.444728 -0.470792 1.000000 0.000000 0.000000
-0.355313 0.309690 0.410588 0.300000 0.000000 0.600000
0.418287 0.660352 -0.051142 0.300000 0.000000 0.600000
0.396578 0.106402 -0.445569 0.300000 0.000000 0.600000
-0.387644 0.145890 -0.000429 0.300000 0.000000 0.600000
-0.303092 0.675352 0.522376 0.300000 0.000000 0.600000
-0.450056 0.689291 -0.089170 0.600000 0.000000 0.300000
-0.471765 0.633728 -0.455237 0.600000 0.000000 0.300000
0.418287 -0.667867 0.067062 0.800000 0.200000 0.500000
-0.355081 -0.178223 0.140379 0.000000 0.500000 0.500000
-0.031834 0.609097 0.544292 1.000000 0.000000 0.000000
0.378864 0.249016 0.489813 0.000000 1.000000 0.000000
0.418287 -0.236875 0.067601 0.300000 0.000000 0.600000
-0.471765 0.295177 0.414634 0.600000 0.000000 0.300000
0.340522 0.178201 -0.487073 1.000000 0.000000 0.000000
-0.289793 0.569805 0.538657 1.000000 0.000000 0.000000
0.209288 -0.111110 0.489813 0.500000 0.000000 0.500000
0.306044 -0.515236 0.213843 0.500000 0.000000 0.500000
0.249543 0.576206 0.489813 1.000000 0.000000 0.000000
0.353880 0.670595 -0.429721 0.300000 0.600000 0.000000
0.394716 -0.097346 0.550504 0.000000 1.000000 0.000000
-0.117627 0.656240 -0.487073 0.300000 0.000000 0.600000
-0.377851 0.373809 -0.470792 1.000000 0.000000 0.000000
0.225274 0.590713 -0.519636 0.300000 0.000000 0.600000
0.091445 -0.556344 0.522376 0.000000 1.000000 0.000000
0.301603 0.108043 0.491003 0.600000 0.000000 0.300000
-0.009802 0.380243 0.553998 0.500000 0.500000 0.000000
-0.387644 0.293186 0.395460 0.300000 0.000000 0.600000
0.396578 -0.396018 -0.283244 0.300000 0.000000 0.600000
-0.175727 0.221649 -0.313404 0.600000 0.300000 0.000000
0.418287 -0.523593 -0.103205 0.300000 0.000000 0.600000
0.139648 0.502354 -0.250791 0.000000 0.000000 1.000000
-0.450056 0.427247 0.282377 0.600000 0.000000 0.300000
-0.331117 -0.536304 -0.487073 0.800000 0.200000 0.500000
0.418287 0.403981 -0.480539 0.300000 0.000000 0.600000
0.083896 0.635731 -0.519636 0.300000 0.000000 0.600000
-0.217235 -0.099676 -0.487073 1.000000 0.000000 0.000000
0.418287 0.341642 -0.021917 0.300000 0.000000 0.600000
0.396578 0.304509 -0.270582 0.300000 0.000000 0.600000
0.202865 -0.015939 -0.049746 0.300000 0.000000 0.600000
0.418287 -0.618395 0.107433 0.800000 0.200000 0.500000
-0.218080 -0.642618 -0.519636 0.600000 0.000000 0.300000
-0.196792 0.557553 0.522376 1.000000 0.000000 0.000000
0.399385 0.630213 0.522376 0.000000 1.000000 0.000000
0.025950 -0.485387 0.153613 0.600000 0.000000 0.300000
0.396578 -0.150541 0.142516 0.300000 0.000000 0.600000
-0.450056 -0.034793 -0.197460 0.600000 0.000000 0.300000
-0.355708 -0.037647 0.017041 0.300000 0.000000 0.600000
0.250939 -0.015939 0.085276 0.300000 0.000000 0.600000
-0.471765 -0.134205 -0.224368 0.600000 0.000000 0.300000
-0.355081 0.086297 0.496900 0.300000 0.000000 0.600000
-0.450056 -0.263095 0.412246 0.600000 0.000000 0.300000
0.243695 0.272167 -0.313404 0.600000 0.300000 0.000000
-0.433436 0.663600 0.554939 1.000000 0.000000 0.000000
-0.346677 0.494213 -0.005651 0.000000 0.000000 1.000000
0.226716 0.478407 0.522376 1.000000 0.000000 0.000000
0.060166 0.502354 0.236869 0.000000 0.000000 1.000000
0.239430 -0.433268 0.489813 0.500000 0.500000 0.000000
-0.471765 -0.729235 -0.374402 0.000000 0.000000 1.000000
-0.450056 0.189805 0.329675 0.600000 0.000000 0.300000
0.301603 -0.483434 -0.018215 0.500000 0.000000 0.500000
0.418287 0.373126 0.115813 0.300000 0.000000 0.600000
-0.181616 0.494213 0.375320 0.000000 0.000000 1.000000
-0.374844 0.383630 0.489813 0.600000 0.300000 0.000000
-0.114195 -0.093827 -0.470792 1.000000 0.000000 0.000000
-0.171068 0.494213 0.309503 0.000000 0.000000 1.000000
0.418287 -0.431128 -0.467118 0.300000 0.000000 0.600000
-0.450056 -0.085918 0.468421 0.600000 0.000000 0.300000
0.396578 -0.134010 -0.192887 0.300000 0.000000 0.600000
-0.130720 0.434052 0.554939 1.000000 0.000000 0.000000
0.301603 -0.451100 0.338140 0.500000 0.000000 0.500000
0.130241 0.673208 -0.519636 0.300000 0.000000 0.600000
-0.290106 -0.289488 0.538657 0.000000 1.000000 0.000000
-0.206844 -0.276273 0.522376 0.500000 0.500000 0.000000
0.261031 0.602756 -0.316726 0.800000 0.200000 0.500000
-0.345304 -0.255208 -0.470792 1.000000 0.000000 0.000000
-0.471765 0.168987 0.184294 0.600000 0.000000 0.300000
0.281792 0.494213 0.029396 0.000000 0.000000 1.000000
-0.407331 0.670595 0.026182 0.600000 0.000000 0.300000
-0.355081 -0.428318 -0.203353 0.000000 0.500000 0.500000
-0.288167 0.084238 -0.470792 1.000000 0.000000 0.000000
-0.344227 0.173501 0.548100 0.500000 0.500000 0.000000
-0.175162 0.494213 0.192847 0.000000 0.000000 1.000000
0.301603 0.280946 0.235155 0.600000 0.000000 0.300000
-0.407611 -0.545085 -0.074237 0.000000 1.000000 0.000000
-0.471765 -0.123688 -0.255695 0.600000 0.000000 0.300000
0.418287 0.551071 0.471899 0.300000 0.000000 0.600000
-0.286367 -0.702340 0.386697 1.000000 0.000000 0.000000
0.070150 -0.111714 -0.470792 1.000000 0.000000 0.000000
0.109250 -0.015939 0.376701 0.300000 0.000000 0.600000
0.261423 -0.264564 0.522376 0.500000 0.500000 0.000000
-0.387644 -0.399706 0.446041 0.000000 0.500000 0.500000
0.418287 -0.561266 -0.307467 0.300000 0.000000 0.600000
0.341194 0.614441 -0.487073 1.000000 0.000000 0.000000
-0.450056 0.635042 -0.213062 0.600000 0.000000 0.300000
-0.471765 0.179354 -0.206188 0.600000 0.000000 0.300000
-0.360848 -0.493721 -0.487073 0.800000 0.200000 0.500000
0.418287 -0.200537 0.096222 0.300000 0.000000 0.600000
0.386914 0.670595 -0.010505 0.300000 0.600000 0.000000
-0.387644 0.073038 0.275000 0.300000 0.000000 0.600000
-0.023347 -0.520971 -0.487073 1.000000 0.000000 0.000000
-0.418428 0.648887 -0.415558 0.600000 0.000000 0.300000
0.246886 -0.007798 -0.304348 0.300000 0.000000 0.600000
-0.309391 -0.549747 0.554939 0.000000 1.000000 0.000000
-0.450056 0.153675 -0.055197 0.600000 0.000000 0.300000
-0.163501 -0.485387 0.025977 0.600000 0.000000 0.300000
-0.335882 -0.493527 0.028729 0.600000 0.000000 0.300000
-0.313111 -0.015939 0.440077 0.300000 0.000000 0.600000
-0.355081 0.549658 0.283171 0.600000 0.000000 0.300000
0.112060 0.573215 0.522376 1.000000 0.000000 0.000000
-0.471765 -0.407925 -0.305651 0.600000 0.000000 0.300000
0.396578 0.036102 0.158308 0.300000 0.000000 0.600000
0.421001 -0.046621 0.537459 0.500000 0.500000 0.000000
-0.463561 -0.481588 0.522376 0.000000 1.000000 0.000000
-0.033762 -0.291184 0.522376 0.500000 0.500000 0.000000
0.178787 -0.211746 -0.313404 0.300000 0.600000 0.000000
0.334152 0.309690 0.462856 0.600000 0.000000 0.300000
0.159346 0.472505 0.506882 1.000000 0.000000 0.000000
-0.167402 0.225717 0.522376 0.500000 0.500000 0.000000
0.224484 -0.539845 -0.519636 0.600000 0.000000 0.300000
-0.081245 0.196268 0.522376 0.500000 0.500000 0.000000
0.418287 -0.736201 -0.147436 0.800000 0.200000 0.500000
0.381399 -0.215407 0.489813 0.000000 1.000000 0.000000
0.334166 -0.373403 -0.238455 0.500000 0.000000 0.500000
0.301603 -0.448201 0.429184 0.500000 0.000000 0.500000
0.290167 -0.485387 0.267986 0.600000 0.000000 0.300000
-0.471765 -0.414230 0.364295 0.600000 0.000000 0.300000
-0.275651 -0.070998 0.522376 0.500000 0.500000 0.000000
0.396578 0.528510 0.207409 0.300000 0.000000 0.600000
-0.149373 -0.561458 -0.470792 1.000000 0.000000 0.000000
-0.387644 -0.301595 -0.181310 0.000000 0.500000 0.500000
-0.267288 -0.226885 -0.313404 0.300000 0.600000 0.000000
0.253846 -0.599140 -0.519636 0.600000 0.000000 0.300000
-0.355081 0.093034 0.367540 0.300000 0.000000 0.600000
0.301603 -0.186049 -0.238697 0.500000 0.000000 0.500000
-0.305347 0.651447 -0.487073 0.300000 0.000000 0.600000
0.095303 -0.545085 -0.310473 0.000000 1.000000 0.000000
-0.140039 0.572907 -0.502438 0.300000 0.000000 0.600000
0.007501 -0.599357 0.512294 0.000000 0.500000 0.500000
0.396578 -0.436207 -0.306442 0.300000 0.000000 0.600000
0.055802 -0.386292 -0.470792 1.000000 0.000000 0.000000
0.160182 -0.250227 0.522376 0.500000 0.500000 0.000000
-0.451976 0.544102 -0.519636 0.600000 0.000000 0.300000
0.331690 -0.135796 0.522376 0.000000 1.000000 0.000000
-0.471765 -0.548987 -0.295964 0.600000 0.000000 0.300000
-0.450056 0.305149 0.475315 0.600000 0.000000 0.300000
-0.470596 -0.294121 0.554939 0.000000 1.000000 0.000000
-0.471765 0.423655 -0.148888 0.600000 0.000000 0.300000
0.282628 -0.545085 -0.304556 0.000000 1.000000 0.000000
0.396578 -0.495959 0.113176 0.300000 0.000000 0.600000
0.418287 -0.284374 -0.177593 0.300000 0.000000 0.600000
0.361818 0.670595 0.323492 0.300000 0.600000 0.000000
0.330523 -0.515236 0.266331 0.500000 0.000000 0.500000
-0.471765 -0.614980 -0.338275 0.000000 0.000000 1.000000
0.272520 -0.576321 0.489813 0.000000 0.500000 0.500000
-0.147382 -0.267256 -0.313404 0.300000 0.600000 0.000000
0.122697 -0.268231 0.489813 0.500000 0.500000 0.000000
-0.471765 -0.334167 0.140205 0.600000 0.000000 0.300000
0.057673 -0.357955 0.547742 0.000000 1.000000 0.000000
-0.199130 -0.306934 -0.345967 0.300000 0.600000 0.000000
-0.450056 -0.347977 -0.294880 0.600000 0.000000 0.300000
-0.046327 0.255048 0.489813 0.500000 0.500000 0.000000
-0.387382 -0.515236 -0.314531 0.000000 0.500000 0.500000
0.001816 0.349363 -0.470792 1.000000 0.000000 0.000000
0.418287 -0.578555 0.170540 0.300000 0.000000 0.600000
-0.443173 -0.545085 0.145277 0.000000 1.000000 0.000000
0.418287 -0.563698 -0.080466 0.300000 0.000000 0.600000
0.160585 -0.493527 0.218259 0.600000 0.000000 0.300000
-0.104520 -0.248033 -0.313404 0.300000 0.600000 0.000000
0.079073 0.527061 -0.313404 0.800000 0.200000 0.500000
0.284762 0.194909 -0.313404 0.600000 0.300000 0.000000
-0.104888 -0.575083 0.386697 1.000000 0.000000 0.000000
0.334166 -0.170210 -0.044999 0.500000 0.000000 0.500000
-0.110033 0.572926 0.538657 1.000000 0.000000 0.000000
-0.450056 0.595600 0.282860 0.600000 0.000000 0.300000
0.398242 0.703158 -0.368434 0.300000 0.000000 0.600000
0.396578 -0.383697 0.028265 0.300000 0.000000 0.600000
-0.088184 0.677965 0.489813 0.300000 0.000000 0.600000
0.147741 -0.545085 -0.463765 0.000000 1.000000 0.000000
0.418287 0.631154 0.140283 0.300000 0.000000 0.600000
-0.452444 0.203667 0.554939 0.500000 0.500000 0.000000
-0.471765 -0.626649 0.332721 0.000000 0.000000 1.000000
-0.437130 0.193558 0.489813 0.500000 0.500000 0.000000
-0.273985 -0.070630 -0.487073 1.000000 0.000000 0.000000
-0.355081 0.597851 0.278433 0.600000 0.000000 0.300000
-0.130989 0.138460 0.544653 0.000000 0.500000 0.500000
0.044534 -0.438639 -0.313404 0.300000 0.600000 0.000000
-0.060756 0.127802 0.522376 0.500000 0.500000 0.000000
0.290749 0.488171 0.551521 1.000000 0.000000 0.000000
0.334166 -0.210933 -0.113178 0.500000 0.000000 0.500000
-0.291839 -0.127331 -0.470792 1.000000 0.000000 0.000000
0.128907 -0.050833 0.554939 0.500000 0.500000 0.000000
-0.041655 -0.545085 0.242552 0.000000 1.000000 0.000000
0.396578 0.395245 -0.269803 0.300000 0.000000 0.600000
-0.263521 0.494213 -0.024224 0.000000 0.000000 1.000000
-0.360047 0.602756 0.470638 0.600000 0.000000 0.300000
0.144383 -0.485387 0.432885 0.600000 0.000000 0.300000
-0.348449 0.648887 0.361684 0.600000 0.000000 0.300000
0.239077 0.306866 -0.487073 1.000000 0.000000 0.000000
0.418287 0.538012 0.261310 0.300000 0.000000 0.600000
0.396578 0.604937 0.232370 0.300000 0.000000 0.600000
0.205209 -0.293188 0.489813 0.500000 0.500000 0.000000
0.394470 0.648887 0.160144 0.300000 0.600000 0.000000
-0.157234 0.185757 -0.345967 0.600000 0.300000 0.000000
0.403414 0.447083 0.522376 0.000000 1.000000 0.000000
0.418287 0.108667 -0.025960 0.300000 0.000000 0.600000
-0.413908 0.620786 -0.470792 1.000000 0.000000 0.000000
0.387121 0.670595 -0.137310 0.300000 0.600000 0.000000
0.396578 0.334834 0.189885 0.300000 0.000000 0.600000
-0.447409 -0.395439 0.522376 0.000000 1.000000 0.000000
0.130694 -0.502594 -0.470792 1.000000 0.000000 0.000000
0.418287 -0.139691 0.199628 0.300000 0.000000 0.600000
-0.196774 0.467059 0.547890 1.000000 0.000000 0.000000
0.396578 0.495413 0.154441 0.300000 0.000000 0.600000
0.311317 0.424040 0.522376 1.000000 0.000000 0.000000
-0.423521 0.605022 0.522376 0.500000 0.500000 0.000000
0.418287 -0.015396 -0.266339 0.300000 0.000000 0.600000
-0.025460 -0.008062 0.522376 0.500000 0.500000 0.000000
-0.427385 -0.535865 0.554939 0.000000 1.000000 0.000000
-0.366451 -0.369208 0.522376 0.000000 0.500000 0.500000
0.396578 -0.465989 0.351714 0.300000 0.000000 0.600000
0.418287 0.034619 0.025960 0.300000 0.000000 0.600000
0.418287 -0.064265 -0.193316 0.300000 0.000000 0.600000
-0.422944 0.506999 -0.487073 1.000000 0.000000 0.000000
-0.300009 0.305136 0.522376 0.500000 0.500000 0.000000
-0.209883 -0.374118 -0.487073 1.000000 0.000000 0.000000
-0.036030 -0.493527 0.056522 0.600000 0.000000 0.300000
-0.338211 0.670595 -0.001486 0.600000 0.000000 0.300000
0.210258 -0.064308 -0.487073 1.000000 0.000000 0.000000
0.354554 0.670595 0.017506 0.300000 0.600000 0.000000
-0.107775 -0.369505 -0.313404 0.300000 0.600000 0.000000
-0.471765 0.361212 0.243831 0.600000 0.000000 0.300000
-0.450056 0.461354 -0.403138 0.600000 0.000000 0.300000
-0.450056 -0.073324 -0.412435 0.600000 0.000000 0.300000
0.396578 0.630510 -0.219223 0.300000 0.000000 0.600000
-0.248420 -0.545085 0.059163 0.000000 1.000000 0.000000
0.031915 -0.184180 0.538965 0.000000 1.000000 0.000000
0.218500 0.626014 -0.470792 1.000000 0.000000 0.000000
-0.450056 0.587030 -0.014522 0.600000 0.000000 0.300000
-0.015326 -0.545085 -0.148047 0.000000 1.000000 0.000000
0.079790 -0.106126 0.489813 0.500000 0.000000 0.500000
-0.417493 -0.386848 0.490175 0.500000 0.500000 0.000000
0.396578 0.193345 -0.306130 0.300000 0.000000 0.600000
-0.387644 0.098563 0.484639 0.300000 0.000000 0.600000
0.301603 0.034267 -0.143222 0.600000 0.000000 0.300000
-0.387644 -0.266594 0.014450 0.000000 0.500000 0.500000
-0.002947 -0.055191 0.522376 0.500000 0.500000 0.000000
-0.413436 0.120603 0.522376 0.500000 0.500000 0.000000
-0.138977 -0.485387 0.074269 0.600000 0.000000 0.300000
-0.382707 -0.475097 0.522376 0.000000 0.500000 0.500000
0.396578 0.181318 0.142590 0.300000 0.000000 0.600000
-0.450056 -0.148917 -0.124320 0.600000 0.000000 0.300000
-0.471765 -0.323316 0.244062 0.600000 0.000000 0.300000
-0.225217 0.494213 -0.198998 0.000000 0.000000 1.000000
-0.376319 0.472505 0.464197 0.600000 0.000000 0.300000
-0.450056 -0.571269 -0.446587 0.600000 0.000000 0.300000
0.296143 -0.545085 -0.155902 0.000000 1.000000 0.000000
0.418287 0.261005 0.014112 0.300000 0.000000 0.600000
-0.367420 -0.515236 0.070056 0.000000 0.500000 0.500000
0.418287 -0.554947 0.405879 0.300000 0.000000 0.600000
-0.387644 -0.421571 0.162887 0.000000 0.500000 0.500000
0.085377 -0.015939 -0.125120 0.300000 0.000000 0.600000
0.418287 -0.661791 0.160997 0.800000 0.200000 0.500000
0.329886 -0.545085 -0.380547 0.000000 1.000000 0.000000
-0.390440 -0.331175 -0.470792 1.000000 0.000000 0.000000
-0.197311 -0.485387 0.112100 0.600000 0.000000 0.300000
-0.374207 -0.545085 0.315997 0.000000 1.000000 0.000000
-0.450056 0.093400 -0.040290 0.600000 0.000000 0.300000
0.290749 -0.391091 0.551935 0.000000 1.000000 0.000000
