ply
format ascii 1.0
element vertex 617
property float x
property float y
property float z
property float nx
property float ny
property float nz
property uchar red
property uchar green
property uchar blue
property float opacity
end_header
0.396578 0.277243 -0.014617 -1.000000 0.000000 0.000000 245 208 149 1.000000
0.285883 -0.485387 0.205722 0.000000 1.000000 0.000000 246 209 150 1.000000
0.324044 -0.143737 -0.470792 0.000000 0.000000 -1.000000 255 255 255 1.000000
-0.122756 0.672195 -0.519636 0.000000 0.000000 -1.000000 243 211 150 1.000000
-0.320020 0.600316 0.489813 0.000000 0.000000 -1.000000 246 209 150 1.000000
-0.387644 -0.329136 0.166731 -1.000000 0.000000 0.000000 243 206 147 1.000000
0.334166 0.122748 -0.150056 -1.000000 0.000000 0.000000 255 255 255 1.000000
0.250929 -0.006398 0.522376 0.000000 0.000000 -1.000000 248 235 215 1.000000
0.396578 0.499807 -0.279057 1.000000 0.000000 0.000000 255 255 255 1.000000
-0.050173 0.502354 -0.287484 0.000000 -1.000000 -0.000000 255 255 255 1.000000
0.180944 -0.102012 0.522376 0.000000 -0.000000 1.000000 248 235 215 1.000000
-0.387644 -0.468960 0.104822 1.000000 0.000000 0.000000 255 255 255 1.000000
0.418287 -0.566875 -0.023229 -1.000000 0.000000 0.000000 255 255 255 1.000000
0.396578 -0.445919 -0.146497 -1.000000 0.000000 0.000000 244 207 148 1.000000
0.213509 0.639762 0.522376 0.000000 0.000000 -1.000000 248 235 215 1.000000
0.116126 -0.007798 -0.027973 0.000000 -1.000000 -0.000000 255 255 255 1.000000
0.418287 0.538788 -0.479942 -1.000000 0.000000 0.000000 255 255 255 1.000000
-0.038164 -0.466785 -0.345967 0.000000 -0.000000 1.000000 255 255 255 1.000000
-0.387370 0.504058 0.554939 0.000000 0.000000 -1.000000 255 255 255 1.000000
-0.355081 0.556423 0.132378 -1.000000 0.000000 0.000000 255 255 255 1.000000
0.334166 -0.492206 -0.303580 1.000000 0.000000 0.000000 248 206 142 1.000000
0.253904 -0.474497 -0.487073 0.000000 -0.000000 1.000000 255 255 255 1.000000
0.088307 -0.015939 0.111773 0.000000 1.000000 0.000000 255 255 255 1.000000
-0.355081 0.601174 -0.017533 -1.000000 0.000000 0.000000 255 255 255 1.000000
-0.266915 0.464354 -0.470792 0.000000 0.000000 -1.000000 255 255 255 1.000000
-0.103099 -0.590934 0.554939 0.000000 -0.000614 -1.000000 255 255 255 1.000000
-0.047984 -0.167899 0.497361 0.000000 -1.000000 -0.000000 255 255 255 1.000000
0.396578 -0.147304 0.476264 1.000000 0.000000 0.000000 255 255 255 1.000000
-0.387644 -0.283882 0.205193 1.000000 0.000000 0.000000 255 255 255 1.000000
0.176400 -0.539658 -0.508948 0.000000 1.000000 0.000000 249 206 149 1.000000
0.301603 0.125486 -0.258654 1.000000 0.000000 0.000000 255 255 255 1.000000
-0.146386 0.350466 0.554939 -0.000000 0.064763 -0.997901 255 255 255 1.000000
-0.387644 -0.361788 -0.298402 1.000000 0.000000 0.000000 255 255 255 1.000000
-0.272849 0.502354 -0.128335 0.000000 1.000000 0.000000 246 214 153 1.000000
-0.110907 -0.444208 0.489813 0.000000 -0.000000 1.000000 255 255 255 1.000000
0.143964 -0.289034 0.538657 0.000000 0.000000 -1.000000 255 255 255 1.000000
-0.231841 -0.402828 -0.313404 0.000000 -0.000000 1.000000 244 207 148 1.000000
0.384985 -0.419131 -0.487073 0.000000 0.000000 -1.000000 249 217 156 1.000000
-0.450056 -0.412277 0.444482 1.000000 0.000000 0.000000 245 203 141 1.000000
0.373190 0.670595 -0.436199 0.000000 -1.000000 -0.000000 255 255 255 1.000000
-0.128152 -0.545085 -0.312499 0.000000 1.000000 0.000000 243 206 147 1.000000
-0.355081 -0.336601 0.257174 1.000000 0.000000 0.000000 246 210 146 1.000000
0.334166 0.092414 0.271260 -1.000000 0.000000 0.000000 255 255 255 1.000000
0.116795 0.290054 -0.470792 0.000000 -0.000000 1.000000 246 209 150 1.000000
0.127185 -0.545085 0.441167 0.000000 1.000000 0.000000 243 211 150 1.000000
0.090965 0.472505 -0.342767 0.000000 1.000000 0.000000 255 255 255 1.000000
-0.225569 -0.015939 0.255451 0.000000 -1.000000 -0.000000 238 201 142 1.000000
-0.088177 0.494213 0.256196 0.000000 -1.000000 -0.000000 246 209 150 1.000000
-0.355081 0.514462 0.031357 1.000000 0.000000 0.000000 242 205 146 1.000000
0.380410 -0.024909 0.489813 0.000000 0.000000 -1.000000 242 205 146 1.000000
-0.225455 0.000852 -0.345967 0.000000 0.000000 -1.000000 245 208 149 1.000000
-0.387644 -0.030709 -0.038338 1.000000 0.000000 0.000000 255 255 255 1.000000
0.283898 -0.485387 0.043329 0.000000 1.000000 0.000000 250 209 151 1.000000
-0.416938 0.691245 0.554939 0.000000 -0.000000 1.000000 248 235 215 1.000000
0.301603 0.079983 0.406382 -1.000000 0.000000 0.000000 248 212 148 1.000000
-0.349480 0.648887 -0.116664 0.000000 -1.000000 -0.000000 243 207 143 1.000000
-0.258553 0.205458 0.538657 0.000000 -0.000000 1.000000 248 235 215 1.000000
-0.223184 -0.562678 -0.470792 0.000000 -0.000000 1.000000 249 217 156 1.000000
0.263263 -0.545085 0.452924 0.000000 -1.000000 -0.000000 255 255 255 1.000000
0.235230 0.440064 -0.487073 0.000000 -0.000000 1.000000 255 255 255 1.000000
-0.190725 -0.156908 0.522376 0.000000 0.000000 -1.000000 248 235 215 1.000000
-0.387644 0.240267 -0.159172 -1.000000 0.000000 0.000000 247 210 151 1.000000
0.279771 -0.493527 0.315334 0.000000 -1.000000 -0.000000 246 209 150 1.000000
0.139323 -0.485387 0.359886 0.000000 -1.000000 -0.000000 255 255 255 1.000000
-0.058784 0.184866 -0.345967 0.000000 0.000000 -1.000000 246 209 150 1.000000
0.275597 0.494213 0.327017 0.000000 1.000000 0.000000 255 255 255 1.000000
0.301603 0.524216 0.132985 -1.000000 0.000000 0.000000 242 206 142 1.000000
0.396578 0.681389 0.198630 1.000000 0.000000 0.000000 255 255 255 1.000000
0.004909 0.130235 0.538657 0.000000 0.000000 -1.000000 255 255 255 1.000000
-0.069975 0.173525 0.489813 0.000000 -0.000000 1.000000 255 255 255 1.000000
-0.244133 -0.037647 0.510155 0.000000 1.000000 0.000000 255 255 255 1.000000
0.214903 -0.290248 0.538657 0.000000 -0.000000 1.000000 248 235 215 1.000000
-0.450056 0.141352 -0.391718 -1.000000 0.000000 0.000000 255 255 255 1.000000
-0.443699 0.247143 -0.470792 0.000000 0.000000 -1.000000 255 255 255 1.000000
-0.423813 0.679643 -0.487073 0.000000 0.000000 -1.000000 255 255 255 1.000000
0.373481 0.080436 0.489813 0.000000 -0.000000 1.000000 255 255 255 1.000000
0.202105 0.551383 0.489813 0.000000 -0.000000 1.000000 255 255 255 1.000000
-0.070663 0.188022 0.538657 0.000000 0.000000 -1.000000 255 255 255 1.000000
-0.362001 0.670595 -0.394488 0.000000 -1.000000 -0.000000 255 255 255 1.000000
-0.027689 -0.310101 -0.487073 0.000000 0.000000 -1.000000 251 218 163 1.000000
0.280491 0.502354 0.028557 0.000000 -1.000000 -0.000000 255 255 255 1.000000
0.377506 -0.351100 0.522376 0.000000 -0.000000 1.000000 248 235 215 1.000000
-0.085135 -0.284873 0.538657 0.000000 0.000000 -1.000000 255 255 255 1.000000
0.418287 0.241020 0.266005 -1.000000 0.000000 0.000000 255 255 255 1.000000
0.328679 0.271728 0.522376 0.000000 -0.000000 1.000000 255 255 255 1.000000
-0.355081 0.240128 0.372933 1.000000 0.000000 0.000000 243 207 143 1.000000
0.328964 -0.376754 0.522376 0.000000 -0.000000 1.000000 255 255 255 1.000000
-0.424927 0.648887 0.158171 0.000000 -1.000000 -0.000000 251 207 150 1.000000
-0.355081 -0.292849 -0.339021 1.000000 0.000000 0.000000 240 204 140 1.000000
0.044051 -0.278598 -0.313404 0.000000 -0.000000 1.000000 242 206 142 1.000000
-0.070584 -0.118113 -0.487073 0.000000 -0.000000 1.000000 255 255 255 1.000000
0.091422 -0.215909 -0.487073 0.000000 -0.000000 1.000000 255 255 255 1.000000
0.301603 0.135683 0.358847 1.000000 0.000000 0.000000 255 255 255 1.000000
-0.471765 -0.317272 -0.356219 -1.000000 0.000000 0.000000 248 235 215 1.000000
-0.332965 0.648887 0.385768 0.000000 1.000000 0.000000 255 255 255 1.000000
0.396578 0.394108 0.395509 1.000000 0.000000 0.000000 255 255 255 1.000000
-0.450056 0.001485 -0.296632 1.000000 0.000000 0.000000 248 211 152 1.000000
-0.083447 -0.323989 -0.313404 0.000000 -0.000000 1.000000 244 207 148 1.000000
0.059351 -0.515236 -0.329114 0.000000 -1.000000 -0.000000 249 212 153 1.000000
-0.090318 -0.543791 0.522376 0.000000 -0.000000 1.000000 248 235 215 1.000000
-0.103333 -0.276197 -0.313404 0.000000 -0.000000 1.000000 244 208 144 1.000000
-0.440205 -0.545085 -0.386804 0.000000 1.000000 0.000000 241 205 141 1.000000
-0.471765 -0.279108 0.270241 -1.000000 0.000000 0.000000 248 235 215 1.000000
-0.387644 -0.172704 -0.173623 1.000000 0.000000 0.000000 255 255 255 1.000000
0.396578 -0.080702 0.094085 -1.000000 0.000000 0.000000 245 214 148 1.000000
0.183972 -0.493527 0.032906 0.000000 1.000000 0.000000 255 255 255 1.000000
-0.387644 -0.280279 0.059038 1.000000 0.000000 0.000000 255 255 255 1.000000
0.219769 -0.534231 0.507636 0.000000 1.000000 0.000000 248 235 215 1.000000
0.222976 0.494213 0.186241 0.000000 1.000000 0.000000 255 255 255 1.000000
0.359569 0.695746 -0.487073 0.000000 0.000000 -1.000000 255 255 255 1.000000
0.413047 -0.215177 0.489813 0.000000 0.000000 -1.000000 250 218 157 1.000000
-0.355612 -0.686935 0.386697 0.000000 0.000000 -1.000000 255 255 255 1.000000
-0.404808 0.267672 0.554939 0.000000 -0.000000 1.000000 248 235 215 1.000000
-0.046786 -0.214996 0.538657 0.000000 0.000000 -1.000000 255 255 255 1.000000
0.301603 0.127943 0.030101 -1.000000 0.000000 0.000000 243 207 143 1.000000
0.301603 -0.256612 0.413622 -1.000000 0.000000 0.000000 240 204 140 1.000000
0.301603 0.117062 0.097987 -1.000000 0.000000 0.000000 243 206 147 1.000000
-0.471765 -0.520218 -0.104400 -1.000000 0.000000 0.000000 248 235 215 1.000000
-0.047610 -0.067441 -0.487073 0.000000 -0.000000 1.000000 255 255 255 1.000000
-0.471765 0.524088 0.209624 -1.000000 0.000000 0.000000 248 235 215 1.000000
0.054218 -0.460445 0.489813 0.000000 -0.000000 1.000000 255 255 255 1.000000
0.301603 -0.272628 0.236362 1.000000 0.000000 0.000000 255 255 255 1.000000
-0.453004 0.597237 0.489813 0.000000 0.000000 -1.000000 245 208 142 1.000000
-0.450056 0.058375 -0.212739 -1.000000 0.000000 0.000000 255 255 255 1.000000
-0.387644 -0.409973 0.344853 -1.000000 0.000000 0.000000 239 203 139 1.000000
-0.471765 0.658247 0.329207 1.000000 0.000000 0.000000 255 255 255 1.000000
-0.062805 -0.376234 0.538657 0.000000 0.000000 -1.000000 255 255 255 1.000000
-0.387644 -0.217823 -0.309911 1.000000 0.000000 0.000000 255 255 255 1.000000
-0.355081 -0.238612 0.303849 -1.000000 0.000000 0.000000 255 255 255 1.000000
0.396578 -0.298492 -0.133916 1.000000 0.000000 0.000000 255 255 255 1.000000
-0.471765 -0.398436 0.156427 1.000000 0.000000 0.000000 255 255 255 1.000000
-0.450056 -0.179442 0.320711 1.000000 0.000000 0.000000 246 210 146 1.000000
0.070740 -0.324020 -0.470792 0.000000 0.000000 -1.000000 255 255 255 1.000000
-0.346926 -0.206452 -0.345967 0.000000 -0.000000 1.000000 255 255 255 1.000000
0.396578 0.584451 0.453975 -1.000000 0.000000 0.000000 232 198 138 1.000000
-0.011142 0.510407 -0.345967 0.000000 -0.000000 1.000000 255 255 255 1.000000
0.095215 -0.490784 0.522376 0.000000 0.000000 -1.000000 255 255 255 1.000000
0.301603 0.257186 -0.084594 -1.000000 0.000000 0.000000 247 210 151 1.000000
-0.014038 -0.493527 -0.142002 0.000000 1.000000 0.000000 255 255 255 1.000000
-0.450056 -0.485911 -0.309764 -1.000000 0.000000 0.000000 255 255 255 1.000000
-0.375584 0.309690 0.505450 0.000000 1.000000 0.000000 245 213 152 1.000000
-0.289595 0.459517 0.553812 -0.000000 0.823948 0.566666 248 235 215 1.000000
-0.355081 0.104108 -0.064805 -1.000000 0.000000 0.000000 255 255 255 1.000000
0.213062 0.494213 -0.091588 0.000000 1.000000 0.000000 255 255 255 1.000000
0.032738 -0.485387 -0.183158 0.000000 1.000000 0.000000 246 209 150 1.000000
-0.214087 -0.545085 0.388312 0.000000 -1.000000 -0.000000 255 255 255 1.000000
0.418287 0.668042 0.036753 1.000000 0.000000 0.000000 248 235 215 1.000000
-0.018373 -0.545085 -0.292830 0.000000 1.000000 0.000000 245 208 149 1.000000
-0.450056 -0.443731 0.169956 -1.000000 0.000000 0.000000 255 255 255 1.000000
-0.285610 0.544131 0.538657 0.000000 0.000000 -1.000000 255 255 255 1.000000
0.301603 -0.279721 -0.004257 -1.000000 0.000000 0.000000 246 209 150 1.000000
-0.438536 0.648887 -0.275749 0.000000 1.000000 0.000000 255 255 255 1.000000
-0.355081 -0.324682 0.447459 1.000000 0.000000 0.000000 244 207 148 1.000000
-0.450056 -0.177662 -0.475841 -1.000000 0.000000 0.000000 255 255 255 1.000000
0.334166 -0.202104 0.292516 1.000000 0.000000 0.000000 246 209 150 1.000000
0.245481 0.455864 0.554939 0.000000 -0.128503 -0.991709 255 255 255 1.000000
-0.343752 0.502354 0.283663 0.000000 1.000000 0.000000 244 207 148 1.000000
-0.450056 0.587828 -0.149307 -1.000000 0.000000 0.000000 255 255 255 1.000000
0.334166 -0.168312 0.242156 1.000000 0.000000 0.000000 243 206 147 1.000000
-0.303320 0.113126 0.538657 0.000000 0.000000 -1.000000 255 255 255 1.000000
0.200168 0.525749 -0.487073 0.000000 -0.000000 1.000000 255 255 255 1.000000
0.381660 0.491816 0.522376 0.000000 0.000000 -1.000000 248 235 215 1.000000
0.168034 -0.007798 0.307913 0.000000 1.000000 0.000000 246 210 146 1.000000
-0.011468 -0.562959 -0.470792 0.000000 -0.000000 1.000000 247 211 147 1.000000
0.334166 0.558429 -0.271663 1.000000 0.000000 0.000000 241 205 141 1.000000
0.118548 0.158321 0.489813 0.000000 0.000000 -1.000000 244 207 148 1.000000
0.301603 -0.464604 0.400043 -1.000000 0.000000 0.000000 242 206 142 1.000000
-0.010752 0.017832 0.538657 0.000000 0.000000 -1.000000 255 255 255 1.000000
-0.162045 -0.493527 0.365974 0.000000 1.000000 0.000000 255 255 255 1.000000
0.146787 0.309690 0.493048 0.000000 1.000000 0.000000 247 210 151 1.000000
-0.455131 0.270545 -0.519636 0.000000 0.000000 -1.000000 244 212 151 1.000000
-0.202418 -0.493527 0.296338 0.000000 -1.000000 -0.000000 249 209 146 1.000000
-0.450056 -0.276773 0.357380 1.000000 0.000000 0.000000 242 208 149 1.000000
-0.100799 0.576877 0.538657 0.000000 -0.000000 1.000000 248 235 215 1.000000
0.334166 -0.303175 0.076971 1.000000 0.000000 0.000000 249 212 153 1.000000
-0.127140 -0.395742 -0.345967 0.000000 0.000000 -1.000000 243 206 147 1.000000
0.418287 -0.368392 -0.091643 1.000000 0.000000 0.000000 248 235 215 1.000000
-0.242184 0.517175 0.538657 0.000000 0.000000 -1.000000 255 255 255 1.000000
0.396578 0.187551 0.183506 -1.000000 0.000000 0.000000 247 213 154 1.000000
0.418287 -0.049120 0.440174 -1.000000 0.000000 0.000000 255 255 255 1.000000
0.418287 -0.261431 0.227637 1.000000 0.000000 0.000000 248 235 215 1.000000
0.253369 0.695018 0.542238 -0.000000 1.000000 0.000000 248 235 215 1.000000
-0.471765 0.328908 0.255404 -1.000000 0.000000 0.000000 248 235 215 1.000000
-0.136506 0.472505 0.501614 0.000000 -1.000000 -0.000000 241 207 148 1.000000
0.409258 -0.423949 0.554939 0.000000 -0.000000 1.000000 248 235 215 1.000000
-0.355081 0.176021 0.444382 1.000000 0.000000 0.000000 245 209 145 1.000000
0.358450 -0.474220 -0.487073 0.000000 -0.000000 1.000000 255 255 255 1.000000
-0.355081 -0.297520 -0.249942 1.000000 0.000000 0.000000 240 204 140 1.000000
-0.340393 0.560722 -0.313404 0.000000 -0.000000 1.000000 244 208 144 1.000000
-0.355081 -0.321327 -0.094830 1.000000 0.000000 0.000000 244 207 148 1.000000
0.381464 0.326612 0.522376 0.000000 0.000000 -1.000000 255 255 255 1.000000
0.396578 -0.412904 0.234908 -1.000000 0.000000 0.000000 245 213 152 1.000000
0.207669 0.248443 -0.470792 0.000000 -0.000000 1.000000 242 205 146 1.000000
-0.375290 -0.515236 0.500944 0.000000 -1.000000 -0.000000 249 212 153 1.000000
0.396578 -0.031326 -0.311153 -1.000000 0.000000 0.000000 246 209 150 1.000000
0.305363 -0.545085 -0.275688 0.000000 -1.000000 -0.000000 255 255 255 1.000000
0.043828 0.176128 -0.345967 0.000000 -0.000000 1.000000 255 255 255 1.000000
-0.029484 0.597428 0.489813 0.000000 0.000000 -1.000000 239 202 143 1.000000
0.396578 0.657792 -0.137931 -1.000000 0.000000 0.000000 250 213 154 1.000000
0.325348 0.023121 -0.345967 0.000000 0.000000 -1.000000 245 209 145 1.000000
-0.471765 -0.195294 -0.242750 -1.000000 0.000000 0.000000 248 235 215 1.000000
0.214257 0.502354 0.380806 0.000000 1.000000 0.000000 243 215 153 1.000000
-0.216565 0.502354 -0.037370 0.000000 1.000000 0.000000 246 209 150 1.000000
0.301603 -0.395495 0.278736 1.000000 0.000000 0.000000 255 255 255 1.000000
-0.305018 -0.167899 -0.313721 0.000000 -1.000000 -0.000000 255 255 255 1.000000
0.334166 0.275126 0.133164 -1.000000 0.000000 0.000000 255 255 255 1.000000
-0.355081 0.009079 0.440159 -1.000000 0.000000 0.000000 255 255 255 1.000000
0.163595 0.370187 -0.487073 0.000000 0.000000 -1.000000 234 197 138 1.000000
0.315978 -0.466078 0.522376 0.000000 -0.000000 1.000000 248 212 148 1.000000
-0.266224 0.620802 -0.519636 0.000000 0.000000 -1.000000 252 215 156 1.000000
0.114601 -0.580710 0.489813 0.000000 0.000000 -1.000000 247 215 154 1.000000
0.418287 -0.128640 -0.361516 -1.000000 0.000000 0.000000 255 255 255 1.000000
0.163675 0.703158 -0.513127 0.000000 1.000000 0.000000 246 209 150 1.000000
0.301603 0.057558 0.036897 -1.000000 0.000000 0.000000 242 205 146 1.000000
-0.342566 -0.545085 -0.055727 0.000000 -1.000000 -0.000000 255 255 255 1.000000
0.301603 -0.377207 -0.272753 -1.000000 0.000000 0.000000 246 210 146 1.000000
-0.471765 -0.757592 -0.504922 -1.000000 0.000000 0.000000 248 235 215 1.000000
0.352246 0.122476 -0.487073 0.000000 0.000000 -1.000000 246 209 150 1.000000
-0.387644 0.476760 -0.301954 -1.000000 0.000000 0.000000 248 207 149 1.000000
0.301603 0.194533 -0.298888 1.000000 0.000000 0.000000 255 255 255 1.000000
-0.450056 0.055203 0.205132 -1.000000 0.000000 0.000000 255 255 255 1.000000
0.334166 0.306886 0.044123 -1.000000 0.000000 0.000000 255 255 255 1.000000
0.418287 -0.314941 0.455705 -1.000000 0.000000 0.000000 255 255 255 1.000000
-0.087785 -0.018103 -0.470792 0.000000 -0.000000 1.000000 248 215 152 1.000000
-0.406200 -0.257527 -0.470792 0.000000 -0.000000 1.000000 243 206 147 1.000000
0.086472 0.544567 0.489813 0.000000 0.000000 -1.000000 248 211 152 1.000000
0.396578 0.117087 -0.346496 1.000000 0.000000 0.000000 255 255 255 1.000000
-0.471765 0.565411 0.359433 1.000000 0.000000 0.000000 255 255 255 1.000000
0.148793 -0.493527 0.124432 0.000000 1.000000 0.000000 255 255 255 1.000000
-0.022318 0.272848 0.489813 0.000000 0.000000 -1.000000 244 207 148 1.000000
-0.471765 -0.306573 0.123810 1.000000 0.000000 0.000000 255 255 255 1.000000
0.004976 -0.015939 0.133291 0.000000 -1.000000 -0.000000 247 210 151 1.000000
-0.429899 -0.442103 0.489813 0.000000 -0.000000 1.000000 255 255 255 1.000000
-0.355081 0.259415 0.034654 -1.000000 0.000000 0.000000 255 255 255 1.000000
0.334166 -0.473193 0.094838 1.000000 0.000000 0.000000 249 212 153 1.000000
0.396578 -0.379922 0.000426 1.000000 0.000000 0.000000 255 255 255 1.000000
-0.319108 -0.439977 0.522376 0.000000 -0.000000 1.000000 251 214 155 1.000000
-0.099382 0.082741 0.538657 0.000000 0.000000 -1.000000 255 255 255 1.000000
-0.471765 0.395072 0.069768 -1.000000 0.000000 0.000000 248 235 215 1.000000
-0.366670 -0.238066 0.522376 0.000000 0.000000 -1.000000 255 255 255 1.000000
-0.450056 0.023818 0.426722 -1.000000 0.000000 0.000000 255 255 255 1.000000
0.179854 0.156756 -0.313404 0.000000 -0.000000 1.000000 244 207 148 1.000000
0.333588 0.095783 -0.345967 0.000000 -0.000000 1.000000 255 255 255 1.000000
-0.247184 -0.582417 0.386697 0.000000 0.000000 -1.000000 255 255 255 1.000000
-0.236485 -0.015939 0.339062 0.000000 1.000000 0.000000 255 255 255 1.000000
0.334166 -0.014202 0.295708 -1.000000 0.000000 0.000000 255 255 255 1.000000
0.213891 -0.007798 -0.306955 0.000000 1.000000 0.000000 246 212 152 1.000000
0.211382 -0.642848 -0.519636 0.000000 -0.000000 1.000000 255 255 255 1.000000
0.364970 -0.545085 -0.379386 0.000000 1.000000 0.000000 244 208 144 1.000000
0.249177 -0.545085 -0.128855 0.000000 -1.000000 -0.000000 255 255 255 1.000000
-0.471765 0.502629 0.047121 -1.000000 0.000000 0.000000 248 235 215 1.000000
0.332259 0.472505 0.196532 0.000000 1.000000 0.000000 255 255 255 1.000000
0.038214 -0.564253 -0.487073 0.000000 -0.000000 1.000000 255 255 255 1.000000
-0.355081 0.275301 -0.239820 1.000000 0.000000 0.000000 244 207 148 1.000000
-0.024046 -0.582947 0.386697 0.000000 -0.000000 1.000000 248 235 215 1.000000
-0.355081 -0.467649 0.350845 -1.000000 0.000000 0.000000 255 255 255 1.000000
0.396578 -0.220992 -0.367274 -1.000000 0.000000 0.000000 244 207 148 1.000000
-0.482619 0.256805 0.511952 -1.000000 0.000000 0.000000 248 235 215 1.000000
-0.387644 0.160510 -0.294086 1.000000 0.000000 0.000000 255 255 255 1.000000
0.418287 0.262577 0.193265 -1.000000 0.000000 0.000000 255 255 255 1.000000
0.334166 -0.393787 0.195435 1.000000 0.000000 0.000000 242 205 146 1.000000
0.418287 -0.264901 -0.051871 -1.000000 0.000000 0.000000 255 255 255 1.000000
0.418287 -0.690114 0.098118 -1.000000 0.000000 0.000000 255 255 255 1.000000
0.421001 -0.520832 0.550326 1.000000 0.000000 0.000000 248 235 215 1.000000
-0.242901 0.657113 0.489813 0.000000 0.000000 -1.000000 242 205 146 1.000000
-0.269224 -0.749091 0.386697 0.000000 -0.000000 1.000000 248 235 215 1.000000
-0.387644 -0.180398 0.440692 1.000000 0.000000 0.000000 255 255 255 1.000000
0.334166 -0.282703 -0.187817 -1.000000 0.000000 0.000000 255 255 255 1.000000
-0.355081 0.228365 -0.289992 1.000000 0.000000 0.000000 244 208 144 1.000000
-0.153661 -0.149662 0.554939 -0.000000 0.113452 -0.993543 255 255 255 1.000000
-0.075469 0.296213 0.544734 -0.000000 0.830343 -0.557252 255 255 255 1.000000
0.328103 0.411853 -0.487073 0.000000 0.000000 -1.000000 246 214 153 1.000000
0.285704 -0.015939 0.341904 0.000000 1.000000 0.000000 255 255 255 1.000000
-0.130303 0.502354 -0.081688 0.000000 -1.000000 -0.000000 255 255 255 1.000000
-0.153297 0.573736 -0.519636 0.000000 -0.000000 1.000000 255 255 255 1.000000
-0.387644 -0.444438 0.228783 -1.000000 0.000000 0.000000 247 215 155 1.000000
0.429141 -0.489677 0.506636 -1.000000 0.000000 0.000000 255 255 255 1.000000
0.301603 0.117674 0.209021 -1.000000 0.000000 0.000000 243 207 143 1.000000
0.056860 -0.493527 -0.077723 0.000000 1.000000 0.000000 255 255 255 1.000000
0.317425 0.620834 -0.519636 0.000000 -0.000000 1.000000 255 255 255 1.000000
0.334166 0.184623 0.026360 1.000000 0.000000 0.000000 248 211 152 1.000000
-0.474478 -0.226442 0.546856 1.000000 0.000000 0.000000 255 255 255 1.000000
-0.471765 -0.310075 -0.145910 -1.000000 0.000000 0.000000 248 235 215 1.000000
-0.471765 0.059598 -0.440490 -1.000000 0.000000 0.000000 248 235 215 1.000000
0.108378 -0.015939 -0.196934 0.000000 1.000000 0.000000 255 255 255 1.000000
0.036651 0.328510 0.554939 -0.000000 0.112200 -0.993686 255 255 255 1.000000
-0.074482 0.494213 -0.021025 0.000000 1.000000 0.000000 255 255 255 1.000000
-0.450056 -0.357190 0.417874 -1.000000 0.000000 0.000000 255 255 255 1.000000
-0.355081 0.078317 -0.023370 -1.000000 0.000000 0.000000 255 255 255 1.000000
0.334166 -0.454857 0.225775 -1.000000 0.000000 0.000000 255 255 255 1.000000
-0.227139 0.494213 0.074126 0.000000 -1.000000 -0.000000 244 207 148 1.000000
-0.419876 0.491802 -0.487073 0.000000 0.000000 -1.000000 247 204 147 1.000000
-0.428275 -0.545085 0.197920 0.000000 -1.000000 -0.000000 255 255 255 1.000000
0.083664 -0.315217 -0.345967 0.000000 -0.000000 1.000000 255 255 255 1.000000
0.006379 -0.459403 0.538657 0.000000 0.000000 -1.000000 255 255 255 1.000000
0.008985 0.599729 -0.470792 0.000000 0.000000 -1.000000 255 255 255 1.000000
0.166903 -0.612319 0.386697 0.000000 -0.000000 1.000000 248 235 215 1.000000
0.252929 -0.493527 -0.285632 0.000000 -1.000000 -0.000000 241 209 149 1.000000
-0.185971 0.494213 0.166916 0.000000 -1.000000 -0.000000 246 209 150 1.000000
-0.110447 -0.516569 -0.487073 0.000000 -0.000000 1.000000 255 255 255 1.000000
-0.151245 0.494213 0.427195 0.000000 -1.000000 -0.000000 246 209 150 1.000000
-0.184737 0.598701 0.538657 0.000000 0.000000 -1.000000 255 255 255 1.000000
-0.308916 0.043167 0.489813 0.000000 -0.000000 1.000000 255 255 255 1.000000
0.160072 0.156952 0.538657 0.000000 -0.000000 1.000000 248 235 215 1.000000
0.052512 0.480630 -0.487073 0.000000 0.000000 -1.000000 245 213 152 1.000000
0.066998 0.502354 0.185068 0.000000 -1.000000 -0.000000 255 255 255 1.000000
-0.297606 -0.485387 -0.106096 0.000000 1.000000 0.000000 244 216 157 1.000000
-0.387644 -0.475121 0.445964 1.000000 0.000000 0.000000 255 255 255 1.000000
-0.387644 0.558598 -0.288119 1.000000 0.000000 0.000000 255 255 255 1.000000
0.418287 -0.477945 0.121072 -1.000000 0.000000 0.000000 255 255 255 1.000000
0.107864 -0.073713 -0.487073 0.000000 0.000000 -1.000000 247 214 159 1.000000
0.005125 -0.015939 -0.209706 0.000000 -1.000000 -0.000000 242 206 142 1.000000
0.182113 -0.682373 0.386697 0.000000 -0.000000 1.000000 248 235 215 1.000000
0.334166 0.213221 -0.258906 1.000000 0.000000 0.000000 244 208 144 1.000000
-0.294188 0.380243 0.548469 -0.000000 1.000000 0.000000 248 235 215 1.000000
0.418287 0.459614 -0.035531 1.000000 0.000000 0.000000 248 235 215 1.000000
-0.033359 -0.545085 0.178429 0.000000 1.000000 0.000000 242 205 146 1.000000
0.369206 0.583365 -0.519636 0.000000 -0.000000 1.000000 255 255 255 1.000000
-0.339548 -0.287051 0.522376 0.000000 -0.000000 1.000000 244 208 144 1.000000
0.018377 0.528312 0.522376 0.000000 0.000000 -1.000000 255 255 255 1.000000
-0.471765 -0.473393 0.314083 1.000000 0.000000 0.000000 255 255 255 1.000000
-0.355081 0.215200 -0.229775 -1.000000 0.000000 0.000000 255 255 255 1.000000
0.071359 0.200017 0.538657 0.000000 -0.000000 1.000000 248 235 215 1.000000
0.022125 -0.104476 -0.487073 0.000000 0.000000 -1.000000 244 216 154 1.000000
-0.241727 0.502354 -0.172966 0.000000 1.000000 0.000000 248 211 152 1.000000
0.418287 0.003798 0.049326 1.000000 0.000000 0.000000 248 235 215 1.000000
-0.237093 0.544792 0.489813 0.000000 0.000000 -1.000000 246 209 150 1.000000
0.364494 -0.545085 -0.231232 0.000000 -1.000000 -0.000000 255 255 255 1.000000
0.280689 -0.017125 -0.345967 0.000000 -0.000000 1.000000 255 255 255 1.000000
0.396578 0.060820 -0.036575 -1.000000 0.000000 0.000000 248 216 155 1.000000
-0.355081 -0.204108 0.214856 1.000000 0.000000 0.000000 246 209 150 1.000000
-0.355081 -0.322524 0.046147 -1.000000 0.000000 0.000000 255 255 255 1.000000
-0.245694 0.551743 -0.470792 0.000000 -0.000000 1.000000 242 210 149 1.000000
0.396578 -0.410751 0.143158 -1.000000 0.000000 0.000000 246 203 146 1.000000
0.304537 -0.497236 -0.487073 0.000000 -0.000000 1.000000 255 255 255 1.000000
-0.092094 0.502354 0.354256 0.000000 -1.000000 -0.000000 255 255 255 1.000000
0.259166 0.138903 -0.470792 0.000000 0.000000 -1.000000 255 255 255 1.000000
0.093180 -0.493527 -0.268020 0.000000 1.000000 0.000000 255 255 255 1.000000
0.418287 -0.157624 -0.435088 -1.000000 0.000000 0.000000 255 255 255 1.000000
-0.063571 -0.485387 0.382410 0.000000 1.000000 0.000000 245 213 152 1.000000
-0.340175 -0.493527 -0.238883 0.000000 1.000000 0.000000 255 255 255 1.000000
-0.471765 0.299957 -0.484774 1.000000 0.000000 0.000000 255 255 255 1.000000
-0.100928 0.292840 0.489813 0.000000 -0.000000 1.000000 255 255 255 1.000000
-0.445303 -0.105588 0.554939 0.000000 0.000000 -1.000000 255 255 255 1.000000
-0.450056 -0.559039 -0.075144 -1.000000 0.000000 0.000000 255 255 255 1.000000
0.176011 0.648887 -0.471695 0.000000 -1.000000 -0.000000 255 255 255 1.000000
0.073285 0.702409 -0.487073 0.000000 -0.000000 1.000000 245 213 152 1.000000
0.334166 0.506368 0.387141 1.000000 0.000000 0.000000 242 202 139 1.000000
0.238840 -0.018804 -0.487073 0.000000 0.000000 -1.000000 248 211 152 1.000000
-0.387644 0.523338 0.396131 -1.000000 0.000000 0.000000 243 207 143 1.000000
-0.336206 0.502354 0.214097 0.000000 1.000000 0.000000 244 208 144 1.000000
-0.471765 -0.075947 0.404598 1.000000 0.000000 0.000000 255 255 255 1.000000
-0.047359 0.483840 -0.470792 0.000000 0.000000 -1.000000 255 255 255 1.000000
0.418287 -0.195990 0.391746 -1.000000 0.000000 0.000000 255 255 255 1.000000
0.063608 0.592877 0.489813 0.000000 0.000000 -1.000000 248 211 152 1.000000
0.396578 -0.570079 -0.447118 -1.000000 0.000000 0.000000 246 209 143 1.000000
-0.139460 0.111172 -0.313404 0.000000 0.000000 -1.000000 255 255 255 1.000000
-0.216671 0.431010 -0.487073 0.000000 -0.000000 1.000000 255 255 255 1.000000
-0.056547 -0.325443 0.522376 0.000000 -0.000000 1.000000 255 255 255 1.000000
0.155455 0.469213 -0.470792 0.000000 -0.000000 1.000000 246 203 146 1.000000
0.045088 -0.270622 -0.487073 0.000000 0.000000 -1.000000 246 205 147 1.000000
-0.339813 -0.425404 -0.313404 0.000000 0.000000 -1.000000 255 255 255 1.000000
-0.450056 -0.230689 0.176468 -1.000000 0.000000 0.000000 255 255 255 1.000000
0.334166 0.304088 -0.138668 1.000000 0.000000 0.000000 247 210 151 1.000000
0.418287 -0.156371 -0.215568 -1.000000 0.000000 0.000000 255 255 255 1.000000
0.315282 0.648887 -0.011027 0.000000 -1.000000 -0.000000 241 205 141 1.000000
0.301603 0.025451 -0.278192 1.000000 0.000000 0.000000 255 255 255 1.000000
0.418287 0.068596 0.260505 -1.000000 0.000000 0.000000 255 255 255 1.000000
0.238061 0.175173 -0.313404 0.000000 -0.000000 1.000000 246 209 150 1.000000
-0.094997 0.494213 -0.124489 0.000000 -1.000000 -0.000000 248 216 155 1.000000
-0.092531 -0.369123 0.489813 0.000000 -0.000000 1.000000 255 255 255 1.000000
-0.272238 -0.015939 0.426251 0.000000 -1.000000 -0.000000 242 202 139 1.000000
0.364015 0.642592 0.505518 1.000000 0.000000 0.000000 255 255 255 1.000000
-0.144775 0.153467 0.522376 0.000000 -0.000000 1.000000 255 255 255 1.000000
0.277552 -0.493527 -0.220629 0.000000 -1.000000 -0.000000 244 208 144 1.000000
-0.126540 -0.485387 -0.190897 0.000000 -1.000000 -0.000000 255 255 255 1.000000
0.309500 0.602756 -0.113186 0.000000 1.000000 0.000000 246 209 150 1.000000
-0.450056 -0.169578 -0.100600 1.000000 0.000000 0.000000 243 206 147 1.000000
0.418287 0.650784 0.278069 -1.000000 0.000000 0.000000 255 255 255 1.000000
0.418287 0.460132 -0.352246 -1.000000 0.000000 0.000000 255 255 255 1.000000
-0.119603 -0.545085 -0.242085 0.000000 -1.000000 -0.000000 255 255 255 1.000000
-0.387644 0.271154 0.453050 1.000000 0.000000 0.000000 255 255 255 1.000000
0.302114 -0.663260 -0.519636 0.000000 0.000000 -1.000000 244 207 148 1.000000
-0.036059 0.601138 -0.313404 0.000000 -0.000000 1.000000 247 210 151 1.000000
-0.471765 -0.026081 0.258341 1.000000 0.000000 0.000000 255 255 255 1.000000
0.418287 0.045220 -0.363613 -1.000000 0.000000 0.000000 255 255 255 1.000000
-0.208227 0.472505 -0.322892 0.000000 -1.000000 -0.000000 244 211 156 1.000000
-0.355081 -0.342383 0.403040 -1.000000 0.000000 0.000000 255 255 255 1.000000
-0.398711 -0.545085 0.304780 0.000000 1.000000 0.000000 239 202 143 1.000000
-0.387644 -0.388952 0.120180 1.000000 0.000000 0.000000 255 255 255 1.000000
0.316256 0.545930 0.554939 0.000000 0.000000 -1.000000 255 255 255 1.000000
0.418287 0.660045 -0.340862 -1.000000 0.000000 0.000000 255 255 255 1.000000
0.396578 0.455369 -0.303673 -1.000000 0.000000 0.000000 245 211 151 1.000000
-0.213283 0.100404 -0.313404 0.000000 0.000000 -1.000000 255 255 255 1.000000
-0.016382 -0.740245 0.386697 0.000000 -0.000000 1.000000 248 235 215 1.000000
0.212789 0.125890 0.522376 0.000000 0.000000 -1.000000 255 255 255 1.000000
0.301603 -0.342985 0.446269 -1.000000 0.000000 0.000000 244 207 148 1.000000
0.186479 -0.485387 -0.250914 0.000000 1.000000 0.000000 235 198 139 1.000000
-0.450056 0.563816 -0.033165 -1.000000 0.000000 0.000000 255 255 255 1.000000
-0.068316 -0.485387 -0.183291 0.000000 1.000000 0.000000 247 210 151 1.000000
-0.471765 0.649529 -0.367242 -1.000000 0.000000 0.000000 248 235 215 1.000000
0.215275 0.502354 0.438842 0.000000 1.000000 0.000000 247 213 153 1.000000
0.402779 0.111959 0.522376 0.000000 -0.000000 1.000000 255 255 255 1.000000
0.332143 0.602756 0.178750 0.000000 -1.000000 -0.000000 255 255 255 1.000000
-0.417493 0.522061 0.521938 -1.000000 0.000000 0.000000 255 255 255 1.000000
0.301603 0.209986 -0.150463 -1.000000 0.000000 0.000000 246 210 146 1.000000
-0.450056 -0.432085 0.242303 1.000000 0.000000 0.000000 245 211 161 1.000000
0.219484 -0.545085 -0.424439 0.000000 1.000000 0.000000 246 209 150 1.000000
0.401085 0.409303 0.554939 0.000000 -0.000000 1.000000 248 235 215 1.000000
0.334166 0.556189 0.317381 -1.000000 0.000000 0.000000 255 255 255 1.000000
0.301603 0.568912 0.048351 1.000000 0.000000 0.000000 255 255 255 1.000000
-0.471765 -0.774040 0.155422 -1.000000 0.000000 0.000000 248 235 215 1.000000
0.123692 -0.284345 -0.313404 0.000000 -0.000000 1.000000 243 207 143 1.000000
0.252508 0.494213 0.285274 0.000000 1.000000 0.000000 255 255 255 1.000000
0.330760 -0.515236 0.343386 0.000000 -1.000000 -0.000000 247 215 154 1.000000
-0.165677 -0.204780 -0.313404 0.000000 -0.000000 1.000000 247 210 151 1.000000
0.157708 -0.015939 0.075350 0.000000 -1.000000 -0.000000 249 217 156 1.000000
-0.387644 -0.338877 0.327044 -1.000000 0.000000 0.000000 242 205 146 1.000000
0.082127 0.147729 -0.345967 0.000000 0.000000 -1.000000 242 205 146 1.000000
0.002501 0.502354 0.038077 0.000000 1.000000 0.000000 245 208 149 1.000000
0.334166 0.570584 -0.214581 1.000000 0.000000 0.000000 243 207 143 1.000000
-0.072067 -0.007798 -0.271263 0.000000 1.000000 0.000000 242 206 142 1.000000
0.418287 0.253491 -0.474147 1.000000 0.000000 0.000000 248 235 215 1.000000
-0.239170 -0.545085 -0.201195 0.000000 -1.000000 -0.000000 255 255 255 1.000000
-0.358862 -0.545085 0.079996 0.000000 -1.000000 -0.000000 255 255 255 1.000000
0.222295 0.260210 0.489813 0.000000 0.000000 -1.000000 243 206 147 1.000000
0.396578 -0.141625 0.117092 -1.000000 0.000000 0.000000 244 207 148 1.000000
-0.355081 -0.218423 0.079988 -1.000000 0.000000 0.000000 255 255 255 1.000000
0.396578 -0.272206 0.411483 1.000000 0.000000 0.000000 255 255 255 1.000000
0.396578 0.569888 0.285844 1.000000 0.000000 0.000000 255 255 255 1.000000
0.166040 -0.167964 -0.313404 0.000000 -0.000000 1.000000 247 210 151 1.000000
0.334166 0.255019 0.439330 -1.000000 0.000000 0.000000 255 255 255 1.000000
-0.450056 -0.107868 -0.474409 1.000000 0.000000 0.000000 246 213 158 1.000000
0.138642 -0.485387 0.212753 0.000000 -1.000000 -0.000000 255 255 255 1.000000
0.188495 0.428832 -0.470792 0.000000 -0.000000 1.000000 241 209 148 1.000000
-0.387644 -0.278817 -0.135898 -1.000000 0.000000 0.000000 244 208 144 1.000000
-0.355081 -0.441744 0.174775 -1.000000 0.000000 0.000000 255 255 255 1.000000
-0.283116 -0.387005 -0.313404 0.000000 -0.000000 1.000000 246 209 150 1.000000
0.038889 -0.485387 -0.290305 0.000000 -1.000000 -0.000000 255 255 255 1.000000
0.224086 0.341194 -0.487073 0.000000 0.000000 -1.000000 241 209 148 1.000000
-0.450056 -0.052290 -0.298236 -1.000000 0.000000 0.000000 255 255 255 1.000000
-0.471765 -0.017518 0.018715 -1.000000 0.000000 0.000000 248 235 215 1.000000
0.238012 -0.545085 0.035859 0.000000 -1.000000 -0.000000 255 255 255 1.000000
-0.382860 -0.167899 -0.059284 0.000000 -1.000000 -0.000000 255 255 255 1.000000
-0.450056 0.335414 -0.190055 1.000000 0.000000 0.000000 241 209 148 1.000000
0.338812 -0.328435 -0.487073 0.000000 0.000000 -1.000000 249 212 153 1.000000
-0.436646 -0.044254 0.554939 0.000000 0.000000 -1.000000 255 255 255 1.000000
-0.471765 -0.366548 -0.097757 1.000000 0.000000 0.000000 255 255 255 1.000000
0.166004 -0.005807 -0.313404 0.000000 0.000000 -1.000000 255 255 255 1.000000
-0.452756 0.213944 0.554939 0.000000 -0.000000 1.000000 248 235 215 1.000000
0.301603 -0.305075 0.369400 1.000000 0.000000 0.000000 255 255 255 1.000000
-0.387644 0.535254 0.167043 1.000000 0.000000 0.000000 255 255 255 1.000000
0.081655 0.309690 -0.334115 0.000000 1.000000 0.000000 245 213 152 1.000000
-0.387644 -0.403838 -0.070454 -1.000000 0.000000 0.000000 243 206 147 1.000000
-0.186733 -0.016672 0.522376 0.000000 0.000000 -1.000000 248 235 215 1.000000
-0.210203 0.687483 0.522376 0.000000 -0.000000 1.000000 248 235 215 1.000000
0.202114 -0.015939 -0.006015 0.000000 1.000000 0.000000 255 255 255 1.000000
-0.471765 -0.766227 -0.338207 1.000000 0.000000 0.000000 255 255 255 1.000000
0.246386 0.277705 0.538657 0.000000 0.000000 -1.000000 255 255 255 1.000000
0.294729 0.167837 0.554939 0.000000 0.000000 -1.000000 255 255 255 1.000000
0.075032 -0.543668 0.522376 0.000000 -0.000000 1.000000 255 255 255 1.000000
-0.387644 0.091231 -0.168804 -1.000000 0.000000 0.000000 248 207 149 1.000000
0.411960 -0.166196 0.554939 0.000000 -0.000000 1.000000 248 235 215 1.000000
-0.117805 -0.440201 -0.313404 0.000000 -0.000000 1.000000 245 213 153 1.000000
0.362049 -0.545085 0.209196 0.000000 -1.000000 -0.000000 255 255 255 1.000000
-0.424781 0.670595 -0.092401 0.000000 -1.000000 -0.000000 255 255 255 1.000000
0.396578 0.679334 0.122007 -1.000000 0.000000 0.000000 241 209 149 1.000000
-0.450056 -0.581354 -0.289066 -1.000000 0.000000 0.000000 255 255 255 1.000000
-0.471765 0.062520 -0.301770 -1.000000 0.000000 0.000000 248 235 215 1.000000
0.301603 0.014804 0.229722 -1.000000 0.000000 0.000000 241 208 145 1.000000
-0.048269 0.700511 -0.519636 0.000000 0.000000 -1.000000 245 213 152 1.000000
0.396578 0.396711 -0.204052 1.000000 0.000000 0.000000 255 255 255 1.000000
-0.355081 0.019588 0.323219 -1.000000 0.000000 0.000000 255 255 255 1.000000
-0.471765 -0.794375 -0.147931 -1.000000 0.000000 0.000000 248 235 215 1.000000
0.418287 0.342501 0.047912 1.000000 0.000000 0.000000 248 235 215 1.000000
-0.471765 0.153220 0.161751 -1.000000 0.000000 0.000000 248 235 215 1.000000
0.012676 -0.493527 0.230178 0.000000 -1.000000 -0.000000 245 208 149 1.000000
0.334166 -0.310153 -0.063775 1.000000 0.000000 0.000000 245 208 149 1.000000
-0.333380 -0.589720 0.522376 0.000000 -0.000000 1.000000 248 235 215 1.000000
0.334166 -0.365277 -0.045109 1.000000 0.000000 0.000000 240 203 144 1.000000
-0.355081 0.034656 0.011348 1.000000 0.000000 0.000000 251 214 155 1.000000
0.301934 0.472505 0.105148 0.000000 -1.000000 -0.000000 238 205 140 1.000000
-0.129655 -0.320695 -0.470792 0.000000 -0.000000 1.000000 244 207 148 1.000000
0.334166 0.554030 0.258420 -1.000000 0.000000 0.000000 255 255 255 1.000000
0.418287 -0.464788 0.209111 1.000000 0.000000 0.000000 248 235 215 1.000000
0.396578 0.428431 0.173791 -1.000000 0.000000 0.000000 242 214 152 1.000000
-0.267064 0.170739 -0.345967 0.000000 0.000000 -1.000000 243 206 147 1.000000
-0.415430 0.648887 0.259782 0.000000 1.000000 0.000000 255 255 255 1.000000
0.006933 0.074792 0.522376 0.000000 0.000000 -1.000000 248 235 215 1.000000
-0.355081 0.150072 -0.044079 -1.000000 0.000000 0.000000 255 255 255 1.000000
-0.355081 0.224262 0.217799 1.000000 0.000000 0.000000 245 208 149 1.000000
-0.368112 0.602756 0.478577 0.000000 -1.000000 -0.000000 255 255 255 1.000000
-0.044168 0.358889 0.522376 0.000000 -0.000000 1.000000 248 235 215 1.000000
0.230726 -0.007798 0.308466 0.000000 -1.000000 -0.000000 255 255 255 1.000000
0.119930 -0.503943 -0.345967 0.000000 -0.000000 1.000000 255 255 255 1.000000
0.334166 0.259506 -0.236973 1.000000 0.000000 0.000000 244 207 148 1.000000
-0.172463 0.287343 -0.345967 0.000000 0.000000 -1.000000 251 214 155 1.000000
-0.130951 -0.515236 0.518854 0.000000 1.000000 0.000000 255 255 255 1.000000
0.334166 -0.177684 0.135959 -1.000000 0.000000 0.000000 255 255 255 1.000000
-0.471765 0.129860 -0.475860 -1.000000 0.000000 0.000000 248 235 215 1.000000
-0.179897 -0.695167 0.386697 0.000000 -0.000000 1.000000 248 235 215 1.000000
-0.039216 -0.290592 -0.313404 0.000000 0.000000 -1.000000 255 255 255 1.000000
-0.338040 -0.545085 0.242049 0.000000 1.000000 0.000000 243 206 147 1.000000
-0.026946 -0.591216 0.553138 -0.000000 1.000000 0.000000 255 255 255 1.000000
0.396578 0.340031 0.148934 -1.000000 0.000000 0.000000 246 209 150 1.000000
0.418287 0.655909 -0.089639 1.000000 0.000000 0.000000 248 235 215 1.000000
-0.112448 -0.485387 0.069498 0.000000 -1.000000 -0.000000 255 255 255 1.000000
0.056967 0.295906 0.522376 0.000000 -0.000000 1.000000 255 255 255 1.000000
-0.376898 0.309690 0.192535 0.000000 1.000000 0.000000 242 205 146 1.000000
0.301603 -0.363570 -0.207931 -1.000000 0.000000 0.000000 242 205 146 1.000000
0.239213 0.224193 -0.345967 0.000000 -0.000000 1.000000 255 255 255 1.000000
0.395331 -0.575962 0.386697 0.000000 -0.000000 1.000000 248 235 215 1.000000
-0.450056 0.479031 -0.155571 -1.000000 0.000000 0.000000 255 255 255 1.000000
0.306569 0.472505 0.503762 0.000000 -1.000000 -0.000000 245 208 149 1.000000
0.137763 -0.390901 -0.487073 0.000000 0.000000 -1.000000 240 208 148 1.000000
-0.482619 -0.553916 0.504676 1.000000 0.000000 0.000000 255 255 255 1.000000
0.333998 -0.545085 0.027498 0.000000 1.000000 0.000000 244 208 144 1.000000
0.334166 -0.003945 -0.186965 1.000000 0.000000 0.000000 241 200 132 1.000000
0.195688 -0.316559 -0.487073 0.000000 -0.000000 1.000000 255 255 255 1.000000
0.136877 0.440915 0.522376 0.000000 0.000000 -1.000000 248 235 215 1.000000
0.099264 0.037597 -0.345967 0.000000 -0.000000 1.000000 255 255 255 1.000000
-0.158733 0.156469 -0.470792 0.000000 0.000000 -1.000000 255 255 255 1.000000
-0.317400 0.502354 0.364211 0.000000 1.000000 0.000000 249 216 153 1.000000
0.301603 -0.217456 0.190851 -1.000000 0.000000 0.000000 238 201 142 1.000000
0.023035 0.531620 -0.487073 0.000000 -0.000000 1.000000 255 255 255 1.000000
0.344100 -0.058308 0.554939 0.000000 0.000000 -1.000000 255 255 255 1.000000
-0.092493 -0.485387 -0.101237 0.000000 1.000000 0.000000 250 206 155 1.000000
0.197138 -0.015939 -0.224819 0.000000 -1.000000 -0.000000 243 207 143 1.000000
-0.471765 0.613702 -0.057587 -1.000000 0.000000 0.000000 248 235 215 1.000000
0.255139 -0.387783 0.538657 0.000000 0.000000 -1.000000 255 255 255 1.000000
-0.102082 -0.678192 0.386697 0.000000 -0.000000 1.000000 248 235 215 1.000000
0.334166 -0.173794 -0.154759 1.000000 0.000000 0.000000 244 207 148 1.000000
-0.387644 0.227132 0.475426 1.000000 0.000000 0.000000 255 255 255 1.000000
-0.450056 0.207960 -0.331434 -1.000000 0.000000 0.000000 255 255 255 1.000000
-0.436538 0.670595 0.462783 0.000000 1.000000 0.000000 245 212 157 1.000000
0.207237 -0.007798 0.399293 0.000000 -1.000000 -0.000000 255 255 255 1.000000
-0.150321 0.052209 -0.345967 0.000000 -0.000000 1.000000 255 255 255 1.000000
0.208827 -0.184180 0.537888 0.000000 -0.936579 0.350456 248 235 215 1.000000
0.260903 -0.384795 -0.313404 0.000000 -0.000000 1.000000 246 209 150 1.000000
0.157113 -0.725521 -0.519636 0.000000 0.000000 -1.000000 247 211 147 1.000000
0.315258 0.472505 -0.017337 0.000000 -1.000000 -0.000000 242 205 146 1.000000
0.100724 -0.207017 0.538657 0.000000 0.000000 -1.000000 255 255 255 1.000000
0.282916 -0.485387 -0.060617 0.000000 1.000000 0.000000 249 208 150 1.000000
-0.387644 0.293295 -0.138260 -1.000000 0.000000 0.000000 255 218 159 1.000000
0.187814 -0.508129 -0.345967 0.000000 -0.000000 1.000000 255 255 255 1.000000
0.131790 0.647866 0.554939 0.000000 -0.102341 0.994749 248 235 215 1.000000
-0.170396 0.598291 -0.470792 0.000000 -0.000000 1.000000 243 206 147 1.000000
-0.296380 -0.016907 -0.470792 0.000000 0.000000 -1.000000 255 255 255 1.000000
0.088491 0.447963 0.522376 0.000000 -0.000000 1.000000 255 255 255 1.000000
-0.159545 -0.318905 -0.313404 0.000000 0.000000 -1.000000 255 255 255 1.000000
-0.355081 0.187083 -0.118414 -1.000000 0.000000 0.000000 255 255 255 1.000000
0.138038 0.508352 -0.345967 0.000000 -0.000000 1.000000 255 255 255 1.000000
-0.383330 -0.004598 -0.345967 0.000000 0.000000 -1.000000 241 205 141 1.000000
0.189804 0.331484 0.522376 0.000000 -0.000000 1.000000 255 255 255 1.000000
-0.075613 -0.085261 0.489813 0.000000 -0.000000 1.000000 255 255 255 1.000000
0.396578 0.170961 -0.279887 1.000000 0.000000 0.000000 255 255 255 1.000000
-0.387644 0.099160 -0.345016 -1.000000 0.000000 0.000000 249 212 153 1.000000
-0.471765 -0.553023 -0.159001 1.000000 0.000000 0.000000 255 255 255 1.000000
0.059499 0.094648 0.489813 0.000000 0.000000 -1.000000 242 205 146 1.000000
0.280132 0.648887 -0.248410 0.000000 1.000000 0.000000 255 255 255 1.000000
0.396578 0.130531 -0.169328 -1.000000 0.000000 0.000000 244 207 148 1.000000
0.183398 -0.561780 0.522376 0.000000 0.000000 -1.000000 248 235 215 1.000000
-0.327968 -0.505984 -0.345967 0.000000 0.000000 -1.000000 244 203 137 1.000000
0.049508 0.539184 0.574958 0.647792 -0.655437 0.388289 128 107 98 1.000000
-0.387644 0.545053 0.458983 1.000000 0.000000 0.000000 255 255 255 1.000000
-0.041660 -0.545085 -0.101510 0.000000 -1.000000 -0.000000 255 255 255 1.000000
0.418287 0.231631 -0.290033 -1.000000 0.000000 0.000000 255 255 255 1.000000
-0.471765 -0.598689 -0.498139 -1.000000 0.000000 0.000000 248 235 215 1.000000
-0.132997 -0.007798 0.212187 0.000000 -1.000000 -0.000000 255 255 255 1.000000
-0.355081 -0.001398 -0.182435 -1.000000 0.000000 0.000000 255 255 255 1.000000
0.266783 0.648887 0.068749 0.000000 1.000000 0.000000 255 255 255 1.000000
-0.344227 -0.475561 0.554037 1.000000 0.000000 0.000000 248 235 215 1.000000
0.301603 0.279210 0.259359 -1.000000 0.000000 0.000000 247 210 151 1.000000
0.396578 -0.341117 -0.183314 -1.000000 0.000000 0.000000 242 205 146 1.000000
0.003473 -0.493527 0.443893 0.000000 -1.000000 -0.000000 242 205 146 1.000000
0.301603 -0.186717 -0.069868 -1.000000 0.000000 0.000000 244 207 148 1.000000
-0.471765 -0.407889 -0.408723 -1.000000 0.000000 0.000000 248 235 215 1.000000
0.301603 0.234810 0.318693 -1.000000 0.000000 0.000000 246 210 146 1.000000
-0.471765 0.414783 -0.216117 -1.000000 0.000000 0.000000 248 235 215 1.000000
0.268734 -0.276225 -0.345967 0.000000 -0.000000 1.000000 255 255 255 1.000000
0.301603 0.589538 -0.287621 -1.000000 0.000000 0.000000 247 210 151 1.000000
-0.322650 -0.243377 0.538657 0.000000 0.000000 -1.000000 255 255 255 1.000000
0.029250 -0.545085 0.169198 0.000000 1.000000 0.000000 242 205 146 1.000000
0.221052 -0.424764 -0.313404 0.000000 -0.000000 1.000000 242 205 146 1.000000
-0.150516 0.691273 -0.487073 0.000000 -0.000000 1.000000 249 217 156 1.000000
-0.450056 -0.105481 -0.143233 1.000000 0.000000 0.000000 247 215 154 1.000000
-0.313834 -0.545085 -0.424976 0.000000 1.000000 0.000000 244 207 148 1.000000
-0.390499 0.380243 0.522621 0.000000 1.000000 0.000000 248 235 215 1.000000
-0.240393 0.045225 -0.345967 0.000000 -0.000000 1.000000 255 255 255 1.000000
-0.355081 -0.282422 -0.045009 -1.000000 0.000000 0.000000 255 255 255 1.000000
-0.471765 -0.252326 -0.217905 1.000000 0.000000 0.000000 255 255 255 1.000000
0.093035 0.247710 -0.313404 0.000000 0.000000 -1.000000 255 255 255 1.000000
0.289510 0.502354 -0.155656 0.000000 1.000000 0.000000 251 214 155 1.000000
-0.355081 0.559046 0.045704 1.000000 0.000000 0.000000 249 212 153 1.000000
0.418287 -0.324794 0.078100 1.000000 0.000000 0.000000 248 235 215 1.000000
-0.415397 0.670595 0.362361 0.000000 -1.000000 -0.000000 255 255 255 1.000000
0.301603 0.078351 -0.287190 1.000000 0.000000 0.000000 255 255 255 1.000000
-0.070750 0.128023 -0.345967 0.000000 -0.000000 1.000000 255 255 255 1.000000
0.334166 0.049348 -0.254279 -1.000000 0.000000 0.000000 255 255 255 1.000000
-0.377586 -0.791622 -0.519636 0.000000 -0.000000 1.000000 255 255 255 1.000000
0.167444 0.494213 0.038900 0.000000 -1.000000 -0.000000 244 210 150 1.000000
-0.450056 0.128802 0.234221 -1.000000 0.000000 0.000000 255 255 255 1.000000
0.175429 -0.426543 0.538657 0.000000 -0.000000 1.000000 248 235 215 1.000000
0.063866 0.029814 -0.470792 0.000000 -0.000000 1.000000 245 204 146 1.000000
0.062163 0.238095 0.489813 0.000000 0.000000 -1.000000 240 204 140 1.000000
-0.153806 -0.067668 0.522376 0.000000 0.000000 -1.000000 255 255 255 1.000000
0.418287 -0.266048 -0.107579 1.000000 0.000000 0.000000 248 235 215 1.000000
-0.366178 0.670595 0.061986 0.000000 1.000000 0.000000 246 206 143 1.000000
0.334166 0.197441 -0.029113 1.000000 0.000000 0.000000 244 207 148 1.000000
0.132989 -0.015939 0.164581 0.000000 1.000000 0.000000 255 255 255 1.000000
-0.387644 0.548106 0.332852 -1.000000 0.000000 0.000000 246 210 146 1.000000
0.013610 -0.238137 0.538657 0.000000 -0.000000 1.000000 248 235 215 1.000000
0.040999 0.000899 -0.345967 0.000000 -0.000000 1.000000 255 255 255 1.000000
-0.387644 -0.369852 0.043766 -1.000000 0.000000 0.000000 242 205 146 1.000000
0.418287 -0.592986 -0.108290 1.000000 0.000000 0.000000 248 235 215 1.000000
-0.151264 -0.015939 -0.304403 0.000000 1.000000 0.000000 255 255 255 1.000000
-0.450056 0.329371 -0.455782 -1.000000 0.000000 0.000000 255 255 255 1.000000
